# .PCD v0.7 - Point Cloud Data file format
VERSION 0.7
FIELDS x y z
SIZE 4 4 4
TYPE F F F
COUNT 1 1 1
WIDTH 1549
HEIGHT 1
VIEWPOINT 0 0 0 1 0 0 0
POINTS 1549
DATA ascii
-164.42151 -146.08743 328.0704
-170.51701 -143.87878 319.64017
-176.17026 -141.5627 310.93488
-181.36714 -139.14496 301.97623
-186.09467 -136.63158 292.78656
-190.34105 -134.02884 283.38885
-194.09567 -131.34325 273.80652
-197.34915 -128.58147 264.06342
-200.09338 -125.7504 254.18379
-202.32152 -122.85704 244.1922
-204.02802 -119.90855 234.11331
-205.20866 -116.91206 223.97153
-205.86061 -113.87457 213.79051
-205.98175 -110.80579 203.60289
-205.57193 -107.71273 193.43184
-204.63223 -104.60291 183.30212
-203.16499 -101.48404 173.23882
-201.1739 -98.363861 163.26691
-198.66396 -95.250137 153.41122
-195.6414 -92.150642 143.69633
-192.1138 -89.073105 134.14647
-188.08997 -86.025192 124.78546
-183.57994 -83.014526 115.63666
-178.595 -80.048615 106.7229
-173.1476 -77.134857 98.066437
-167.25133 -74.28054 89.688889
-160.92093 -71.49279 81.611168
-154.17221 -68.778557 73.853447
-147.02202 -66.14463 66.435104
-139.48822 -63.59758 59.374653
-131.58961 -61.143772 52.689739
-123.34593 -58.78933 46.397053
-114.77776 -56.540142 40.51231
-105.90647 -54.401817 35.050209
-96.754227 -52.379696 30.024393
-87.343857 -50.478832 25.447411
-77.698845 -48.703972 21.330694
-67.843239 -47.05954 17.684526
-57.801617 -45.549644 14.518009
-47.598976 -44.178051 11.839051
-37.260681 -42.948174 9.654336
-26.81234 -41.863079 7.9693117
-16.279562 -40.92543 6.7881632
-5.6860414 -40.137398 6.1137166
4.935657 -39.501373 5.947947
15.558809 -39.018955 6.2912784
26.158106 -38.691261 7.1427941
36.707428 -38.519093 8.500351
47.180603 -38.502861 10.360549
57.551571 -38.642605 12.718737
67.794495 -38.937965 15.569021
77.883835 -39.388206 18.90428
87.794418 -39.992195 22.716183
97.501518 -40.748428 26.995205
106.98091 -41.65501 31.730659
116.20892 -42.709679 36.910717
125.16252 -43.909798 42.522442
133.81935 -45.252369 48.551819
142.15781 -46.734043 54.983784
150.15703 -48.351112 61.802277
157.79709 -50.099548 68.990265
165.05887 -51.974976 76.529808
171.92426 -53.972713 84.402077
178.37608 -56.08778 92.58741
184.39825 -58.314888 101.06538
189.97572 -60.648483 109.81482
195.09456 -63.082737 118.81389
199.74197 -65.61158 128.04013
203.90637 -68.228706 137.47055
207.57736 -70.927582 147.0816
210.74574 -73.7015 156.84937
213.40364 -76.543541 166.74953
215.54442 -79.446671 176.75752
217.16275 -82.403725 186.84868
218.25465 -85.407616 196.99879
218.81746 -88.451019 207.18307
218.8493 -91.524391 217.3696
218.35028 -94.620804 227.53546
217.32167 -97.732681 237.65576
215.76605 -100.85232 247.70544
213.68735 -103.97196 257.65955
211.09073 -107.08383 267.49326
207.98268 -110.18018 277.18207
204.37099 -113.25327 286.70184
200.26466 -116.29544 296.02878
195.67397 -119.29911 305.13965
190.61037 -122.25677 314.01169
185.0865 -125.16103 322.62274
179.11618 -128.00465 330.95132
172.71431 -130.78052 338.97662
165.89688 -133.48172 346.67862
158.68091 -136.1015 354.03806
151.08443 -138.6333 361.03656
143.12639 -141.07083 367.65665
134.82669 -143.40797 373.88184
126.20602 -145.6389 379.6965
117.28593 -147.75806 385.08618
108.08866 -149.76013 390.03735
98.637184 -151.64014 394.53772
88.955063 -153.39337 398.57599
79.066452 -155.01546 402.14212
68.995995 -156.50235 405.22717
58.768757 -157.85034 407.82346
48.410164 -159.05608 409.9245
37.945843 -160.11656 411.52505
27.401339 -161.02917 412.62115
20.182829 -152.90347 421.76001
9.2720804 -153.58337 422.01831
-1.6438711 -154.10565 421.75348
-12.539792 -154.46913 420.96628
-23.388893 -154.67293 419.65872
-34.164272 -154.71655 417.83405
-44.839134 -154.59991 415.49683
-55.386879 -154.32329 412.65292
-65.781219 -153.88739 409.30945
-75.996223 -153.2933 405.4747
-86.006401 -152.54251 401.15833
-95.786774 -151.63689 396.37106
-105.31292 -150.5787 391.12488
-114.56107 -149.37061 385.43286
-123.50811 -148.01559 379.30927
-132.13171 -146.51707 372.76935
-140.41035 -144.87877 365.8295
-148.32333 -143.10478 358.50696
-155.85092 -141.19954 350.8201
-162.97429 -139.1678 342.78806
-169.67566 -137.01465 334.43091
-175.93829 -134.74544 325.76953
-181.74655 -132.36584 316.82553
-187.08594 -129.88179 307.62125
-191.9431 -127.29951 298.17963
-196.30591 -124.6254 288.52423
-200.16348 -121.86617 278.67914
-203.50618 -119.02867 268.66888
-206.32565 -116.11996 258.51837
-208.6149 -113.14727 248.25281
-210.36818 -110.11794 237.89755
-211.58119 -107.03928 227.47768
-212.25102 -103.9185 217.01749
-212.37547 -100.76559 206.55052
-211.95442 -97.587708 196.10059
-210.98895 -94.392616 185.69312
-209.48149 -91.188225 175.35387
-207.43581 -87.982491 165.10854
-204.85703 -84.783386 154.9826
-201.7516 -81.598907 145.00134
-198.12727 -78.436981 135.18962
-193.9931 -75.305496 125.57193
-189.35941 -72.21228 116.17227
-184.23779 -69.165039 107.01409
-178.64102 -66.171394 98.120277
-172.58308 -63.238808 89.513016
-166.0791 -60.374615 81.213799
-159.14532 -57.58596 73.24337
-151.79909 -54.879807 65.621613
-144.0587 -52.26292 58.367565
-135.94353 -49.741829 51.499352
-127.4738 -47.32283 45.034119
-118.67068 -45.011967 38.988018
-109.55614 -42.81501 33.376148
-100.15295 -40.737446 28.212523
-90.484543 -38.784458 23.510038
-80.575066 -36.96093 19.280443
-70.449226 -35.271408 15.534297
-60.132259 -33.720112 12.280954
-49.64986 -32.310909 9.5285387
-39.028091 -31.04731 7.2839193
-28.293257 -29.932459 5.5526915
-17.47167 -28.969103 4.3391562
-6.5876765 -28.159462 3.6462159
4.3252678 -27.505997 3.4759014
15.239706 -27.010349 3.8286467
26.129635 -26.673674 4.7035112
36.96822 -26.496782 6.0982919
47.728569 -26.480106 8.0094957
58.383907 -26.62368 10.432345
68.907692 -26.927141 13.360785
79.273674 -27.389727 16.787497
89.456009 -28.010277 20.70392
99.429276 -28.787245 25.100275
109.16859 -29.718687 29.965574
118.64964 -30.802273 35.28767
127.84875 -32.035301 41.053268
136.74295 -33.414684 47.247967
145.31003 -34.936985 53.856297
153.52861 -36.598396 60.861752
161.37814 -38.394772 68.246841
168.83905 -40.321625 75.993118
175.89267 -42.374142 84.081238
182.52142 -44.547203 92.49102
188.70872 -46.835377 101.20145
194.43912 -49.23296 110.1908
199.69832 -51.733959 119.43662
204.47318 -54.332146 128.91585
208.75175 -57.02103 138.60484
212.52339 -59.793915 148.47943
215.77866 -62.643887 158.51503
218.50943 -65.563866 168.68666
220.70891 -68.546593 178.96907
222.37161 -71.584732 189.33693
223.49347 -74.67099 199.76535
224.0717 -77.797836 210.22888
224.10442 -80.955482 220.69472
223.59171 -84.136795 231.13933
222.5349 -87.334007 241.53712
220.93663 -90.539185 251.86237
218.80092 -93.744362 262.08942
216.13309 -96.941559 272.19275
212.93983 -100.1228 282.14725
209.22911 -103.28017 291.92804
205.01019 -106.40575 301.51074
200.29361 -109.49178 310.87143
195.09117 -112.53054 319.98672
189.41585 -115.51443 328.83389
183.28181 -118.43603 337.39084
176.70441 -121.28802 345.6362
169.70004 -124.06328 353.54938
162.28621 -126.75489 361.1106
154.48143 -129.35612 368.30103
146.30519 -131.86047 375.10263
137.77791 -134.2617 381.4985
128.92087 -136.55382 387.47263
119.75618 -138.73108 393.01007
110.30672 -140.78804 398.09702
100.59608 -142.71959 402.72079
90.648476 -144.5209 406.86978
80.488724 -146.18747 410.53369
70.142136 -147.71513 413.70334
59.634468 -149.10008 416.37082
48.991844 -150.33888 418.52948
38.240589 -151.42844 420.17392
27.406956 -152.36609 421.30008
19.945236 -143.83315 430.009
8.7705708 -144.5295 430.27353
-2.4094224 -145.06441 430.00232
-13.568901 -145.43668 429.19608
-24.680428 -145.6454 427.85687
-35.71645 -145.69008 425.98807
-46.649517 -145.57062 423.59433
-57.4524 -145.28731 420.68164
-68.098167 -144.84087 417.25726
-78.560257 -144.23241 413.32977
-88.812569 -143.46346 408.909
-98.829514 -142.53593 404.00592
-108.58608 -141.45215 398.63284
-118.05792 -140.21483 392.80316
-127.22139 -138.82704 386.53143
-136.05359 -137.29227 379.83334
-144.53247 -135.61433 372.72559
-152.63686 -133.79744 365.22595
-160.34653 -131.84612 357.35315
-167.6422 -129.76524 349.12683
-174.50568 -127.55999 340.56754
-180.91978 -125.23589 331.69666
-186.86855 -122.79874 322.53632
-192.33708 -120.25461 313.10938
-197.31172 -117.60986 303.43936
-201.78008 -114.87108 293.55042
-205.73094 -112.0451 283.46719
-209.1545 -109.13896 273.21481
-212.04219 -106.1599 262.81876
-214.3868 -103.1153 252.30489
-216.18248 -100.01269 241.69916
-217.42484 -96.859573 231.02724
-218.11087 -93.6633 220.31404
-218.23834 -90.43412 209.5939
-217.8071 -87.179375 198.89117
-216.81827 -83.906998 188.23196
-215.27435 -80.625092 177.64262
-213.17918 -77.341812 167.14948
-210.53802 -74.065338 156.77863
-207.35748 -70.803825 146.55592
-203.64548 -67.565414 136.50687
-199.41132 -64.358185 126.65654
-194.66554 -61.190144 117.02951
-189.42003 -58.069199 107.64981
-183.68788 -55.003139 98.540863
-177.48341 -51.999622 89.725403
-170.82211 -49.066143 81.225449
-163.72063 -46.210037 73.062218
-156.19669 -43.438427 65.256104
-148.26907 -40.75824 57.826591
-139.9576 -38.176167 50.792244
-131.283 -35.698654 44.170628
-122.26695 -33.331898 37.978279
-112.93195 -31.081799 32.230663
-103.30129 -28.953979 26.942139
-93.399025 -26.953754 22.125908
-83.249855 -25.086115 17.794004
-72.879082 -23.355726 13.957244
-62.312565 -21.766907 10.625208
-51.576611 -20.323616 7.8062153
-40.697914 -19.029455 5.5073013
-29.703421 -17.887636 3.7341976
-18.620075 -16.900978 2.4913085
-7.4728117 -16.071754 1.7816072
3.7041018 -15.40248 1.6071727
14.882545 -14.894845 1.9684505
26.035887 -14.550025 2.8644767
37.136642 -14.368855 4.2929955
48.157269 -14.351776 6.2504292
59.070347 -14.498823 8.731884
69.848686 -14.809624 11.731158
80.465408 -15.283398 15.240757
90.894035 -15.91896 19.251915
101.10855 -16.714722 23.75461
111.08344 -17.668692 28.737595
120.79382 -18.77849 34.188423
130.21544 -20.041342 40.093483
139.32478 -21.454094 46.438023
148.09909 -23.013216 53.2062
156.51646 -24.714815 60.381107
164.55588 -26.554642 67.944832
172.19725 -28.528101 75.878479
179.42149 -30.630266 84.162247
186.21057 -32.855888 92.775444
192.54753 -35.199413 101.69657
198.41655 -37.654987 110.90336
203.80295 -40.216488 120.37283
208.6933 -42.877518 130.08134
213.07538 -45.631443 140.0047
216.93825 -48.471397 150.11815
220.27226 -51.390308 160.39648
223.06909 -54.380913 170.81415
225.32176 -57.435795 181.34528
227.02469 -60.547417 191.96391
228.17368 -63.708332 202.64459
228.7659 -66.910812 213.36122
228.79939 -70.144836 224.08022
228.27429 -73.403107 234.77747
227.19191 -76.67765 245.42677
225.55499 -79.960358 256.00177
223.36761 -83.243065 266.4762
220.63527 -86.517593 276.82391
217.36476 -89.775795 287.0192
213.56429 -93.009521 297.03656
209.24332 -96.210716 306.85107
204.41264 -99.371391 316.43817
199.08437 -102.48365 325.77396
193.27176 -105.53973 334.83514
186.98936 -108.53198 343.59906
180.25285 -111.45296 352.04385
173.07906 -114.29535 360.14844
165.4859 -117.05207 367.89258
157.49232 -119.71622 375.2569
149.11832 -122.28115 382.22305
140.38477 -124.74047 388.77362
131.31349 -127.08801 394.89224
121.92712 -129.31793 400.56363
112.2491 -131.42467 405.77365
102.30357 -133.40294 410.50925
92.115356 -135.24782 414.75861
81.709846 -136.9547 418.51114
71.112984 -138.5193 421.75745
60.351158 -139.93776 424.48944
49.451099 -141.20653 426.70032
38.439789 -142.32243 428.38455
27.344105 -143.28276 429.53793
19.657824 -134.36394 437.79517
8.2471733 -135.07498 438.06531
-3.1689174 -135.62119 437.78833
-14.564059 -136.00131 436.96509
-25.910236 -136.21445 435.5976
-37.179317 -136.26007 433.68933
-48.343269 -136.13809 431.24506
-59.374287 -135.8488 428.27084
-70.244865 -135.39293 424.77417
-80.927895 -134.77162 420.76373
-91.396713 -133.98643 416.24957
-101.62519 -133.03932 411.24298
-111.5878 -131.93265 405.75641
-121.25967 -130.66919 399.80362
-130.61664 -129.25211 393.39944
-139.63536 -127.68492 386.55991
-148.29329 -125.97156 379.30206
-156.56883 -124.11629 371.64404
-164.44131 -122.12376 363.60498
-171.89105 -119.99893 355.20496
-178.89946 -117.74712 346.4649
-185.44904 -115.37394 337.40668
-191.52342 -112.88531 328.05289
-197.10744 -110.28746 318.42688
-202.18713 -107.58686 308.55267
-206.74983 -104.79024 298.4549
-210.78415 -101.90458 288.15872
-214.28 -98.937073 277.68982
-217.22867 -95.895096 267.07425
-219.62279 -92.786209 256.33835
-221.45641 -89.618073 245.50864
-222.72499 -86.398369 234.61134
-223.42551 -83.134598 223.67191
-223.55566 -79.837227 212.72539
-223.11533 -76.513748 201.79665
-222.10562 -73.172264 190.91234
-220.52908 -69.82106 180.09938
-218.38968 -66.468445 169.38463
-215.69275 -63.122768 158.79477
-212.44504 -59.792381 148.35619
-208.65465 -56.485584 138.09492
-204.33105 -53.210625 128.03658
-199.48508 -49.975681 118.20624
-194.12878 -46.78883 108.62846
-188.27559 -43.65802 99.327148
-181.94009 -40.591076 90.325531
-175.13812 -37.59565 81.646072
-167.88666 -34.679226 73.310455
-160.20383 -31.849087 65.339485
-152.10881 -29.112299 57.753082
-143.62181 -26.475698 50.570187
-134.76402 -23.945869 43.808735
-125.55757 -21.529129 37.485619
-116.02544 -19.231512 31.616625
-106.19141 -17.05876 26.216417
-96.080025 -15.016294 21.298479
-85.716522 -13.109215 16.875095
-75.12674 -11.342284 12.95731
-64.337082 -9.7199116 9.5549088
-53.374413 -8.2461424 6.6763849
-42.26598 -6.9246502 4.3289227
-31.039307 -5.7587194 2.5183749
-19.721903 -4.751225 1.2492386
-8.3392344 -3.9044893 0.52454996
3.0737112 -3.2210827 0.34643188
14.488219 -2.7027266 0.71533912
25.877094 -2.3506248 1.6302875
37.212276 -2.1656294 3.088973
48.465633 -2.1481898 5.0877438
59.609169 -2.298342 7.6216011
70.61512 -2.6157057 10.684214
81.456055 -3.0994849 14.267928
92.104912 -3.7484689 18.363792
102.53513 -4.5610347 22.961575
112.72067 -5.535152 28.049789
122.63612 -6.6683865 33.61573
132.2567 -7.9579067 39.645489
141.55841 -9.4004927 46.124012
150.51802 -10.992539 53.035118
159.11314 -12.730073 60.361546
167.32233 -14.608752 68.084999
175.12506 -16.623888 76.186188
182.50188 -18.770447 84.64489
189.43433 -21.04307 93.43998
195.90511 -23.436083 102.5495
201.89806 -25.943514 111.95071
207.39822 -28.559107 121.62016
212.39185 -31.276333 131.53369
216.86646 -34.088417 141.66661
220.8109 -36.988346 151.99364
224.21532 -39.968895 162.48903
227.07121 -43.022655 173.12669
229.37146 -46.142048 183.88022
231.11035 -49.319382 194.7231
232.2836 -52.547047 205.62932
232.88832 -55.817162 216.57228
232.92253 -59.119476 227.51762
232.38634 -62.446552 238.44077
231.2811 -65.790253 249.31497
229.6096 -69.142281 260.11328
227.37605 -72.494308 270.8089
224.586 -75.837997 281.37515
221.24643 -79.164993 291.78574
217.36568 -82.467018 302.01465
212.95346 -85.735817 312.03641
208.02078 -88.963234 321.82599
202.57999 -92.14122 331.35892
196.64462 -95.261826 340.61145
190.22955 -98.317284 349.56046
183.35078 -101.29994 358.18359
176.0255 -104.20235 366.45932
168.27199 -107.01729 374.36697
160.10962 -109.7377 381.88684
151.55876 -112.3568 389.00009
142.64078 -114.86805 395.689
133.37793 -117.26517 401.93683
123.79335 -119.54219 407.728
113.91095 -121.69341 413.048
103.75539 -123.71346 417.88361
93.352013 -125.59729 422.22272
82.726768 -127.34021 426.0545
71.906128 -128.93787 429.36938
60.91703 -130.38628 432.15906
49.786789 -131.68184 434.41663
38.542938 -132.82132 436.13641
27.21294 -133.80193 437.31418
19.32131 -124.51949 445.09906
7.7031956 -125.24347 445.37411
-3.9204571 -125.7996 445.0921
-15.522781 -126.18664 444.25388
-27.075249 -126.40365 442.86154
-38.549217 -126.4501 440.91858
-49.916149 -126.3259 438.42984
-61.147724 -126.03135 435.40158
-72.21595 -125.56719 431.84131
-83.093208 -124.93459 427.75797
-93.752365 -124.13512 423.16174
-104.16682 -123.17079 418.06412
-114.31056 -122.044 412.47781
-124.15828 -120.75758 406.41678
-133.68538 -119.31472 399.89618
-142.86807 -117.71904 392.93228
-151.68343 -115.97453 385.54248
-160.10942 -114.08553 377.74521
-168.12503 -112.05677 369.56
-175.71022 -109.89331 361.00723
-182.84605 -107.60056 352.10828
-189.51471 -105.18423 342.88538
-195.69954 -102.65035 333.36151
-201.38507 -100.00526 323.56049
-206.55713 -97.255562 313.50674
-211.2028 -94.408096 303.22537
-215.31046 -91.469978 292.742
-218.86987 -88.448509 282.08276
-221.87215 -85.351227 271.27417
-224.3098 -82.185814 260.34308
-226.17674 -78.960083 249.31647
-227.4684 -75.681831 238.22105
-228.18166 -72.358727 227.08272
-228.31418 -69.001396 215.93716
-227.86583 -65.617493 204.80972
-226.83777 -62.215263 193.72752
-225.23257 -58.80312 182.71796
-223.05428 -55.389549 171.8084
-220.3083 -51.983047 161.026
-217.00154 -48.59211 150.39763
-213.14224 -45.225189 139.9498
-208.74004 -41.890686 129.70857
-203.80594 -38.596928 119.69951
-198.35228 -35.352131 109.94759
-192.39265 -32.164398 100.47717
-185.94197 -29.041693 91.31189
-179.01633 -25.991806 82.474625
-171.63303 -23.022358 73.98745
-163.81052 -20.140762 65.871559
-155.56831 -17.354216 58.147221
-146.927 -14.669677 50.833729
-137.90817 -12.093851 43.949345
-128.53433 -9.6331701 37.511261
-118.82889 -7.2937803 31.535563
-108.81606 -5.0815225 26.03717
-98.520836 -3.0019214 21.029818
-87.96891 -1.060169 16.526009
-77.186592 0.73888713 12.536993
-66.200752 2.3907573 9.0727301
-55.038765 3.8913214 6.1418705
-43.728367 5.2368407 3.7517281
-32.297573 6.4239697 1.9082615
-20.774403 7.4497819 0.61605024
-9.1847782 8.3119125 -0.12181439
2.4356723 9.0077448 -0.30317095
14.057714 9.5355253 0.072443634
25.653658 9.8940287 1.0040271
37.194927 10.082388 2.489234
48.652889 10.100144 4.5243454
59.999035 9.9472628 7.1042724
71.205093 9.6241283 10.222568
82.243126 9.1315536 13.87144
93.085594 8.4707699 18.041773
103.70545 7.6434302 22.72315
114.07619 6.6516023 27.903877
124.17191 5.4977636 33.571014
133.96741 4.1847978 39.710407
143.43823 2.7159839 46.306717
152.56075 1.0949906 53.343479
161.31215 -0.6741336 60.803112
169.67058 -2.5869706 68.666985
177.61519 -4.6387439 76.915466
185.12611 -6.8243303 85.527962
192.18462 -9.1382732 94.482956
198.77304 -11.574796 103.75811
204.87495 -14.127816 113.33025
210.47511 -16.790964 123.1755
215.55954 -19.557592 133.26929
220.11551 -22.420805 143.58643
224.13167 -25.373459 154.10121
227.59798 -28.408201 164.78743
230.5058 -31.517485 175.6185
232.84787 -34.693592 186.56755
234.61838 -37.928696 197.60756
235.81296 -41.215042 208.71208
236.42867 -44.544613 219.85399
236.4635 -47.906967 230.99835
235.91756 -51.294537 242.1201
234.79224 -54.699028 253.192
233.09035 -58.112003 264.18665
230.81618 -61.524979 275.07672
227.97539 -64.929459 285.83511
224.5751 -68.316948 296.43497
220.62381 -71.679001 306.84985
216.13136 -75.007233 317.05383
211.10901 -78.293335 327.02136
205.56927 -81.529099 336.72763
199.52602 -84.706444 346.14838
192.99431 -87.817451 355.2601
185.99046 -90.85434 364.04001
178.532 -93.809525 372.46622
170.63751 -96.675636 380.51767
162.32674 -99.445511 388.17422
153.62041 -102.11224 395.41684
144.54028 -104.66914 402.22733
135.10902 -107.10985 408.58878
125.35018 -109.42826 414.48523
115.2881 -111.61859 419.90198
104.9479 -113.67537 424.8255
94.355377 -115.59345 429.2435
83.536942 -117.36806 433.14493
72.519569 -118.99477 436.52008
61.330673 -120.46951 439.3605
49.998066 -121.78863 441.65909
38.549786 -122.94882 443.41016
27.01379 -123.94726 444.60931
18.936537 -114.32442 451.90244
7.1399989 -115.05953 452.1817
-4.6621628 -115.6242 451.89539
-16.442667 -116.01718 451.04428
-28.172552 -116.23753 449.63055
-39.822731 -116.2847 447.65775
-51.364227 -116.15858 445.1308
-62.768291 -115.85951 442.056
-74.006493 -115.38822 438.44107
-85.050804 -114.7459 434.29501
-95.873657 -113.93416 429.6282
-106.44804 -112.95502 424.45227
-116.74757 -111.81093 418.78018
-126.74652 -110.50475 412.62607
-136.41994 -109.03973 406.00534
-145.74364 -107.41955 398.93448
-154.69438 -105.64824 391.43121
-163.24979 -103.73023 383.51419
-171.38849 -101.67032 375.20328
-179.09016 -99.473633 366.51917
-186.33559 -97.145668 357.48355
-193.10666 -94.69223 348.11899
-199.38646 -92.119446 338.44888
-205.15932 -89.433739 328.49734
-210.41081 -86.6418 318.28918
-215.12781 -83.75061 307.84991
-219.29857 -80.767365 297.20557
-222.91264 -77.699501 286.38263
-225.96101 -74.554649 275.40805
-228.4361 -71.340622 264.30908
-230.33173 -68.065346 253.11313
-231.64322 -64.736763 241.84731
-232.36742 -61.362614 230.53792
-232.50198 -57.953728 219.22121
-232.04675 -54.517857 207.92288
-231.0029 -51.063377 196.67049
-229.37305 -47.598831 185.49184
-227.1613 -44.132839 174.41473
-224.37315 -40.674023 163.46675
-221.01561 -37.231007 152.67516
-217.09705 -33.812378 142.06688
-212.62724 -30.426668 131.66837
-207.61737 -27.082325 121.50559
-202.07994 -23.787697 111.60391
-196.02879 -20.551012 101.98805
-189.47905 -17.380346 92.682007
-182.44705 -14.283623 83.70903
-174.95036 -11.268571 75.091515
-167.00771 -8.3427219 66.850983
-158.63893 -5.513381 59.008022
-149.86491 -2.7876153 51.582214
-140.70758 -0.17223161 44.592106
-131.18977 2.3262384 38.055149
-121.33528 4.7015553 31.98768
-111.16869 6.9477878 26.404846
-100.71535 9.0593262 21.320593
-90.001373 11.030898 16.747618
-79.053467 12.857583 12.697341
-67.898926 14.534822 9.1798773
-56.565514 16.058432 6.2040067
-45.081417 17.424614 3.777158
-33.475075 18.629974 1.9053808
-21.77494 19.671539 0.5933246
-10.00733 20.546911 -0.1558717
1.79158 21.253429 -0.34001341
13.592106 21.789314 0.041369606
25.366133 22.153324 0.98725981
37.084648 22.344576 2.4952755
48.718571 22.362604 4.5616407
60.238964 22.207375 7.1811886
71.617119 21.879278 10.347373
82.824669 21.379139 14.052282
93.833649 20.708208 18.286661
104.6166 19.868162 23.039932
115.1466 18.861101 28.30022
125.39736 17.689545 34.05439
135.34329 16.356415 40.288067
144.95958 14.865043 46.98568
154.22218 13.219155 54.130508
163.10797 11.422862 61.7047
171.59477 9.480649 69.689346
179.66139 7.397366 78.064499
187.28767 5.1782146 86.809258
194.45456 2.8287358 95.901779
201.14418 0.3547945 105.31937
207.3398 -2.2374339 115.03851
213.02597 -4.9414802 125.03497
218.18846 -7.7505975 135.28377
222.81441 -10.65778 145.75935
226.89224 -13.655779 156.43561
230.41179 -16.737127 167.28595
233.36426 -19.894161 178.28336
235.74231 -23.119045 189.40054
237.53999 -26.40383 200.61011
238.75291 -29.740648 211.88516
239.3781 -33.121353 223.19818
239.41347 -36.535343 234.51369
238.85913 -39.974937 245.80623
237.71652 -43.431709 257.04819
235.98851 -46.897102 268.21167
233.6794 -50.362492 279.26901
230.795 -53.819252 290.1926
227.34248 -57.258766 300.95523
223.33051 -60.672455 311.53009
218.76907 -64.051796 321.89075
213.66959 -67.388367 332.01138
208.04478 -70.67382 341.8667
201.90871 -73.899963 351.43213
195.27669 -77.058746 360.68378
188.1653 -80.142273 369.59851
180.59229 -83.142845 378.15414
172.57655 -86.052971 386.32922
164.13815 -88.865387 394.10339
155.29813 -91.573059 401.45721
146.07855 -94.169235 408.37231
136.50246 -96.647423 414.83142
126.59373 -99.001442 420.81842
116.37713 -101.22541 426.31836
105.87813 -103.31377 431.3175
95.122932 -105.26131 435.80334
84.138351 -107.06318 439.76471
72.951775 -108.71487 443.19168
61.591053 -110.21227 446.07571
50.084404 -111.55163 448.40964
38.460312 -112.72964 450.18756
26.747152 -113.74341 451.40515
18.504465 -103.80424 458.18826
6.5589905 -104.54863 458.47104
-5.39218 -105.12043 458.18109
-17.321421 -105.51838 457.31924
-29.1994 -105.7415 455.8877
-40.99667 -105.78927 453.88998
-52.683884 -105.66157 451.33112
-64.231934 -105.35871 448.2175
-75.612022 -104.88148 444.55695
-86.795769 -104.23105 440.35852
-97.755264 -103.40906 435.63278
-108.46317 -102.41755 430.39154
-118.89273 -101.25901 424.64783
-129.01791 -99.93634 418.41602
-138.81346 -98.452827 411.71167
-148.2549 -96.812187 404.55154
-157.31863 -95.018517 396.95352
-165.98206 -93.076294 388.93658
-174.22351 -90.990372 380.52072
-182.02243 -88.765953 371.72696
-189.35933 -86.408592 362.57727
-196.2159 -83.924187 353.09448
-202.57498 -81.318916 343.30228
-208.42072 -78.599297 333.2251
-213.73851 -75.772118 322.88806
-218.51508 -72.844421 312.31702
-222.73848 -69.823509 301.53824
-226.39819 -66.716911 290.57864
-229.48506 -63.532356 279.46552
-231.99139 -60.277748 268.22641
-233.91095 -56.961124 256.88913
-235.239 -53.590508 245.48106
-235.97235 -50.173763 234.02888
-236.10861 -46.72184 222.56929
-235.64763 -43.242588 211.12833
-234.59059 -39.744492 199.73386
-232.94017 -36.236206 188.41408
-230.70049 -32.726452 177.19713
-227.87715 -29.223967 166.1109
-224.4772 -25.737482 155.18306
-220.50917 -22.275692 144.44084
-215.98293 -18.847235 133.91106
-210.90981 -15.460667 123.61997
-205.30247 -12.124443 113.59328
-199.17493 -8.8468914 103.85601
-192.54248 -5.6361961 94.432472
-185.42169 -2.5003741 85.346199
-177.83035 0.55274421 76.619888
-169.78743 3.5155342 68.275314
-161.31299 6.3805966 60.333332
-152.42819 9.1407766 52.81377
-143.15524 11.789182 45.735405
-133.51727 14.319196 39.115917
-123.53836 16.724503 32.971844
-113.2434 18.999094 27.318523
-102.6581 21.137293 22.170078
-91.808846 23.133757 17.539366
-80.722717 24.983505 13.437953
-69.427338 26.681919 9.8760786
-57.95084 28.224766 6.8626366
-46.321747 29.608196 4.4051476
-34.568871 30.828775 2.509738
-22.721016 31.883492 1.1811163
-10.804833 32.769913 0.422461
1.1430449 33.485352 0.2359944
13.092559 34.028004 0.62219262
25.015238 34.39661 1.5800252
36.881706 34.590275 3.1070805
48.662518 34.608532 5.1995349
60.328358 34.451344 7.8521562
71.850166 34.119102 11.058315
83.199219 33.612648 14.81
94.347198 32.933247 19.097841
105.26629 32.082596 23.911123
115.92923 31.06282 29.237827
126.30942 29.876472 35.064648
136.38094 28.52651 41.377026
146.11862 27.01631 48.159203
155.49817 25.349642 55.394234
164.49615 23.53067 63.064056
173.0901 21.563934 71.149513
181.25856 19.45435 79.630409
188.98112 17.20718 88.485573
196.23851 14.828037 97.692894
203.01257 12.322862 107.22939
209.28642 9.6979046 117.07124
215.04437 6.9597187 127.1939
220.27206 4.1151342 137.5721
224.95641 1.1712475 148.17995
229.08572 -1.8646034 158.991
232.6497 -4.9848557 169.97832
235.63947 -8.1817474 181.11458
238.04753 -11.447348 192.37213
239.8679 -14.773605 203.72322
241.09615 -18.152554 215.14064
241.72922 -21.575939 226.59648
241.76503 -25.033035 238.05486
241.2037 -28.516056 249.48997
240.04666 -32.016472 260.87384
238.29683 -35.525616 272.17831
235.95859 -39.03476 283.37521
233.03775 -42.535164 294.43674
229.54166 -46.018105 305.33527
225.47902 -49.474892 316.04361
220.86 -52.8969 326.5351
215.69614 -56.275589 336.78351
210.00031 -59.602528 346.76324
203.78676 -62.869408 356.44946
197.07101 -66.068069 365.8179
189.86983 -69.190529 374.84521
182.2012 -72.228981 383.50885
174.08427 -75.17585 391.78714
165.53932 -78.023773 399.65945
156.58769 -80.765633 407.10611
147.25171 -83.394585 414.10852
137.55472 -85.90406 420.6492
127.5209 -88.287804 426.71179
117.1753 -90.539848 432.28119
106.54374 -92.654579 437.34344
95.652756 -94.626709 441.88593
84.529495 -96.451324 445.89728
73.201683 -98.123863 449.36752
61.697517 -99.640167 452.28799
50.045593 -100.99644 454.65134
38.274742 -102.18933 456.45175
26.413696 -103.2159 457.68469
18.026178 -92.98526 463.9408
5.9616237 -93.737061 464.22641
-6.1086831 -94.31456 463.93359
-18.156841 -94.716476 463.06314
-30.153229 -94.941826 461.61731
-42.0681 -94.990067 459.59967
-53.871819 -94.861092 457.01532
-65.534981 -94.555222 453.87067
-77.028519 -94.073219 450.17361
-88.323753 -93.416313 445.93335
-99.392502 -92.586121 441.16052
-110.20714 -91.584732 435.867
-120.74067 -90.41465 430.06601
-130.9668 -89.078789 423.77209
-140.85999 -87.58049 417.00092
-150.39554 -85.9235 409.76944
-159.54964 -84.111946 402.09567
-168.29941 -82.15036 393.99881
-176.62303 -80.043648 385.49905
-184.49969 -77.79705 376.61761
-191.90973 -75.416191 367.37674
-198.83464 -72.907013 357.79941
-205.25713 -70.27578 347.90958
-211.16113 -67.529053 337.73193
-216.53194 -64.673683 327.29187
-221.35611 -61.716801 316.61542
-225.62163 -58.665779 305.72922
-229.31781 -55.52821 294.66037
-232.43546 -52.311909 283.43646
-234.96677 -49.024857 272.08533
-236.90546 -45.675171 260.63501
-238.24675 -42.270958 249.11324
-238.98741 -38.820152 237.54689
-239.12503 -35.333817 225.97305
-238.65945 -31.81988 214.41803
-237.59189 -28.286913 202.90999
-235.925 -24.743656 191.47737
-233.66299 -21.198914 180.14859
-230.81152 -17.661514 168.95186
-227.37769 -14.140273 157.91508
-223.37009 -10.643974 147.06578
-218.79872 -7.1813402 136.43103
-213.67503 -3.7610133 126.03735
-208.0118 -0.39153177 115.91071
-201.82317 2.9186924 106.07637
-195.1246 6.1613936 96.558891
-187.93285 9.328476 87.38205
-180.26582 12.412029 78.568741
-172.14272 15.404354 70.140991
-163.5838 18.297977 62.119835
-154.61044 21.085672 54.525311
-145.24506 23.760477 47.376385
-135.511 26.315714 40.69091
-125.43262 28.744997 34.485588
-115.03503 31.042265 28.775913
-104.3442 33.201778 23.576145
-93.386803 35.218143 18.899273
-82.190163 37.08633 14.756973
-70.782181 38.801678 11.159592
-59.191277 40.359901 8.1161098
-47.446262 41.757122 5.6341233
-35.576225 42.989868 3.7198191
-23.610264 44.055099 2.3779531
-11.575294 44.950359 1.6117349
0.49168858 45.672928 1.4234095
12.560322 46.220989 1.8134575
24.601854 46.593269 2.7808383
36.586613 46.788868 4.3231163
48.484863 46.807304 6.4364295
60.266998 46.648548 9.1154938
71.903664 46.313 12.353613
83.365845 45.801495 16.142698
94.624954 45.115322 20.473282
105.65289 44.256191 25.334547
116.42213 43.22625 30.71435
126.90579 42.028072 36.599255
137.0777 40.664654 42.97456
146.91246 39.1394 49.824345
156.38551 37.45612 57.1315
165.47319 35.619011 64.877777
174.15282 33.632671 73.043839
182.40271 31.502056 81.609276
190.20226 29.232487 90.552711
197.53198 26.829628 99.851822
204.37358 24.299479 109.48338
210.70996 21.648354 119.42334
216.52531 18.882872 129.64691
221.80511 16.009932 140.12856
226.53615 13.036698 150.84215
230.70663 9.9705839 161.76099
234.30615 6.8192272 172.85783
237.3257 3.5904665 184.1051
239.75778 0.29231325 195.47488
241.59631 -3.0671029 206.93912
242.83679 -6.4797335 218.47035
243.47617 -9.9372463 230.04041
243.51234 -13.428805 241.61299
242.94542 -16.946547 253.16211
241.77684 -20.481857 264.65945
240.00957 -24.02598 276.0766
237.64801 -27.570107 287.38513
234.69806 -31.105404 298.55692
231.16711 -34.623066 309.56409
227.06398 -38.114311 320.37918
222.39891 -41.570435 330.97525
217.18356 -44.982803 341.32584
211.43097 -48.342907 351.40506
205.15549 -51.642349 361.18781
198.37279 -54.872898 370.64966
191.09981 -58.026482 379.76697
183.35474 -61.09523 388.51694
175.15691 -64.071472 396.87778
166.52678 -66.947784 404.82855
157.4859 -69.71698 412.34946
148.05685 -72.372139 419.42166
138.2632 -74.906631 426.02756
128.12935 -77.314133 432.15057
117.68062 -79.588631 437.77548
106.94308 -81.724442 442.88818
95.943527 -83.716232 447.47595
84.709381 -85.559036 451.52731
73.268646 -87.248253 455.03217
61.649807 -88.779663 457.98172
49.881729 -90.14946 460.36865
37.993534 -91.35424 462.18698
26.014252 -92.391037 463.43225
17.502871 -81.894516 469.14572
5.3493924 -82.651855 469.43344
-6.8098807 -83.23362 469.13846
-18.946842 -83.638489 468.2616
-31.031651 -83.865501 466.80508
-43.03434 -83.914101 464.77261
-54.925064 -83.784172 462.16919
-66.674194 -83.476044 459.00137
-78.252441 -82.990501 455.27704
-89.630928 -82.328743 451.00555
-100.78127 -81.492439 446.19751
-111.67561 -80.483665 440.86499
-122.28679 -79.304962 435.02127
-132.58829 -77.959251 428.68094
-142.5544 -76.449913 421.85986
-152.16023 -74.780701 414.57507
-161.38179 -72.955803 406.84476
-170.19606 -70.979759 398.6882
-178.58104 -68.857513 390.12579
-186.51575 -66.59436 381.17892
-193.98041 -64.195953 371.8699
-200.95636 -61.668282 362.22198
-207.42618 -59.017651 352.25928
-213.3737 -56.250675 342.00662
-218.7841 -53.374264 331.48959
-223.64383 -50.395588 320.73447
-227.94078 -47.322075 309.76801
-231.66422 -44.161385 298.61758
-234.80482 -40.921375 287.31094
-237.3548 -37.610096 275.87613
-239.30779 -34.235722 264.34143
-240.65897 -30.806414 252.73473
-241.40508 -27.330175 241.08313
-241.54372 -23.818142 229.424
-241.07471 -20.278307 217.7838
-239.99927 -16.719299 206.19092
-238.3201 -13.149926 194.67404
-236.04143 -9.5790567 183.26176
-233.16893 -6.015584 171.98251
-229.70978 -2.468389 160.86438
-225.67264 1.0536804 149.93512
-221.0676 4.5418363 139.22197
-215.90613 7.9873734 128.75169
-210.20116 11.38169 118.5504
-203.96692 14.716312 108.64358
-197.21898 17.982916 99.055954
-189.97421 21.17334 89.81147
-182.25069 24.279621 80.933205
-174.0677 27.294003 72.443336
-165.44569 30.208954 64.36306
-156.4062 33.017197 56.712555
-146.97177 35.711716 49.510937
-137.16599 38.285786 42.776188
-127.01331 40.732975 36.525127
-116.53909 43.047173 30.773369
-105.76946 45.222603 25.535275
-94.7313 47.253834 20.823931
-83.452133 49.135788 16.651098
-71.960068 50.863777 13.027203
-60.28373 52.433487 9.9612885
-48.452145 53.841011 7.4610076
-36.494621 55.082844 5.5325942
-24.440458 56.155922 4.1808376
-12.316783 57.057781 3.4089718
-0.16085975 57.785679 3.2192583
11.996728 58.33778 3.6121812
24.127014 58.712803 4.5866923
36.200111 58.90984 6.1403379
48.186058 58.928413 8.269228
60.055035 58.76849 10.968039
71.777466 58.430466 14.230025
83.324135 57.915192 18.047039
94.666229 57.223957 22.409542
105.77545 56.358494 27.306637
116.62407 55.320965 32.726093
127.18501 54.113956 38.654373
137.43188 52.74049 45.076668
147.33913 51.203991 51.97694
156.882 49.508301 59.337955
166.03667 47.657658 67.141327
174.78027 45.656677 75.367577
183.09096 43.510357 83.996147
190.948 41.224056 93.005508
198.33174 38.803486 102.37315
205.22377 36.254688 112.0757
211.60687 33.584026 122.08893
217.46509 30.798159 132.38785
222.7838 27.904043 142.94676
227.54971 24.908895 153.73932
231.75093 21.820181 164.73862
235.37697 18.645597 175.91727
238.41878 15.393039 187.24744
240.86877 12.070576 198.70102
242.72087 8.6863985 210.24976
243.97049 5.2486138 221.86598
244.61458 1.7656171 233.52132
244.65102 -1.7516768 245.1792
244.07991 -5.2953463 256.81345
242.90274 -8.8567152 268.39554
241.12244 -12.426961 279.89682
238.74345 -15.997209 291.28873
235.77177 -19.558565 302.54285
232.2148 -23.102152 313.63113
228.08142 -26.619133 324.52597
223.38197 -30.100729 335.20013
218.12819 -33.53825 345.62698
212.33318 -36.923119 355.78052
206.01144 -40.246883 365.63538
199.17876 -43.50124 375.16696
191.85217 -46.67807 384.35144
184.05002 -49.769436 393.16592
175.79175 -52.767616 401.58838
167.09801 -55.665127 409.59778
157.99051 -58.454731 417.1741
148.49196 -61.129459 424.29846
138.62611 -63.682636 430.953
128.41757 -66.10788 437.12119
117.89183 -68.399139 442.78754
107.07516 -70.550697 447.93793
95.994522 -72.557167 452.55951
84.677574 -74.413551 456.64075
73.152512 -76.115219 460.17142
61.448032 -77.657921 463.1427
49.593216 -79.037819 465.54724
37.617401 -80.251472 467.37897
25.549822 -81.295914 468.63339
16.935854 -70.559776 473.78998
4.7238288 -71.32077 474.07907
-7.4940181 -71.905327 473.78265
-19.689445 -72.312157 472.90158
-31.832468 -72.54026 471.43808
-43.892979 -72.589088 469.39578
-55.840981 -72.458534 466.77982
-67.646713 -72.148926 463.59674
-79.280731 -71.661041 459.85449
-90.714035 -70.996094 455.56241
-101.91808 -70.155762 450.73123
-112.86491 -69.142136 445.37299
-123.5272 -67.957748 439.50113
-133.87833 -66.60556 433.13025
-143.89244 -65.088943 426.27634
-153.54454 -63.411697 418.95645
-162.81053 -61.578003 411.18887
-171.66727 -59.592442 402.99304
-180.09264 -57.459972 394.38937
-188.06557 -55.185917 385.39941
-195.56619 -52.775959 376.04556
-202.57574 -50.236107 366.35117
-209.07672 -47.572708 356.34045
-215.0529 -44.792408 346.03842
-220.48936 -41.902138 335.47073
-225.3725 -38.909115 324.66379
-229.69016 -35.820797 313.6445
-233.43152 -32.644878 302.44037
-236.58727 -29.389261 291.07925
-239.14952 -26.062031 279.58936
-241.11191 -22.6714 267.99908
-242.46959 -19.225574 256.33649
-243.21931 -15.732589 244.62875
-243.35861 -12.203637 232.91345
-242.88734 -8.6467505 221.21718
-241.80673 -5.0705986 209.56847
-240.11948 -1.4840307 197.99611
-237.82982 2.1040399 186.52885
-234.94348 5.684679 175.19527
-231.46768 9.2489614 164.02357
-227.41109 12.787997 153.04166
-222.78386 16.292957 142.2769
-217.59753 19.755091 131.7562
-211.86507 23.16576 121.50576
-205.6008 26.516445 111.55122
-198.82036 29.798784 101.9174
-191.54068 33.004578 92.628387
-183.77995 36.125824 83.707352
-175.55756 39.154724 75.176582
-166.89401 42.083717 67.057381
-157.81097 44.905487 59.370029
-148.3311 47.612988 52.13372
-138.47807 50.199459 45.366528
-128.27649 52.658436 39.085354
-117.75182 54.983784 33.305885
-106.93031 57.169693 28.042559
-95.838974 59.210705 23.308519
-84.50547 61.101727 19.115587
-72.958046 62.838039 15.474233
-61.225464 64.415314 12.39355
-49.336884 65.829613 9.8812246
-37.321754 67.077431 7.943521
-25.209526 68.155678 6.5852528
-13.027449 69.061882 5.809669
-0.81296706 69.793282 5.6190414
11.403186 70.348045 6.0138574
23.591908 70.724876 6.993063
35.72316 70.922859 8.5541925
47.766846 70.941528 10.693337
59.692997 70.78083 13.405149
71.471901 70.441177 16.68285
83.074196 69.923424 20.51825
94.470924 69.228859 24.901768
105.63366 68.35923 29.822454
116.53454 67.316696 35.268017
127.14635 66.103874 41.224854
137.4426 64.723793 47.678089
147.39757 63.179893 54.611599
156.9864 61.476036 62.008076
166.18517 59.616474 69.849037
174.97089 57.605854 78.114914
183.32161 55.449196 86.785049
191.21651 53.151882 95.837807
198.63582 50.719654 105.25058
205.56105 48.158577 114.99987
211.9749 45.475048 125.06133
217.86133 42.675762 135.40987
223.20566 39.767704 146.01964
227.99452 36.758129 156.8642
232.21599 33.654537 167.91647
235.8595 30.464659 179.14897
238.91597 27.19643 190.53372
241.37776 23.857964 202.04248
243.23877 20.457483 213.64685
244.49442 17.003139 225.31903
245.14162 13.503364 237.0305
245.17822 9.9691267 248.74455
244.60437 6.4083862 260.43484
243.42151 2.8298619 272.07272
241.63263 -0.7575829 283.62943
239.2422 -4.3450289 295.0762
236.25621 -7.9235415 306.38452
232.6821 -11.4842 317.52625
228.52881 -15.018121 328.47354
223.80672 -18.516489 339.19913
218.52762 -21.97057 349.67621
212.7047 -25.371744 359.87866
206.35251 -28.711519 369.78101
199.48691 -31.981554 379.35849
192.12503 -35.173687 388.58722
184.28529 -38.279942 397.44418
175.98724 -41.292568 405.9072
167.25163 -44.204037 413.95517
158.10025 -47.007076 421.56799
148.55595 -49.694691 428.72665
138.64258 -52.260166 435.41327
128.38486 -54.697098 441.61115
117.80841 -56.999393 447.30481
106.93963 -59.161312 452.48001
95.805618 -61.177452 457.12387
84.434151 -63.042778 461.22476
72.853577 -64.75264 464.77243
61.092709 -66.302773 467.75806
49.180786 -67.689316 470.17413
37.147278 -68.908821 472.01471
25.021568 -69.95829 473.27518
16.326548 -59.009468 477.86191
4.0865026 -59.772209 478.15167
-8.159379 -60.358112 477.85458
-20.38279 -60.765869 476.9715
-32.553677 -60.994495 475.50461
-44.641861 -61.043442 473.45764
-56.617279 -60.912586 470.83569
-68.450096 -60.602268 467.64529
-80.110817 -60.113262 463.89447
-91.570351 -59.446793 459.59253
-102.8001 -58.60453 454.75024
-113.77206 -57.588577 449.37973
-124.45881 -56.40147 443.49438
-134.83368 -55.046177 437.10892
-144.87077 -53.526085 430.23926
-154.54503 -51.84499 422.90256
-163.83229 -50.007088 415.11719
-172.70934 -48.016972 406.90253
-181.15404 -45.879608 398.27914
-189.14526 -43.600338 389.26852
-196.6631 -41.184845 379.89322
-203.68874 -38.639168 370.17657
-210.20464 -35.969658 360.14291
-216.19453 -33.182976 349.81723
-221.64345 -30.286076 339.22528
-226.53781 -27.286184 328.39352
-230.86536 -24.190779 317.34897
-234.61531 -21.007572 306.11914
-237.77831 -17.744486 294.73193
-240.34644 -14.409622 283.2157
-242.31332 -11.011211 271.59882
-243.67413 -7.5574784 259.90945
-244.42557 -4.0564775 248.17487
-244.56519 -0.51942903 236.43268
-244.09283 3.0456195 224.70958
-243.00974 6.6299767 213.03413
-241.31862 10.224774 201.43521
-239.0237 13.821078 189.94165
-236.13074 17.409933 178.58206
-232.64696 20.982395 167.38474
-228.58107 24.529551 156.37762
-223.94322 28.042553 145.58817
-218.745 31.51263 135.0433
-212.99937 34.931126 124.76936
-206.72073 38.289501 114.79198
-199.92473 41.579369 105.13606
-192.62836 44.792519 95.825722
-184.84982 47.920925 86.884224
-176.60855 50.956779 78.333878
-167.92513 53.89249 70.196053
-158.82124 56.720737 62.491055
-149.31963 59.434452 55.23814
-139.44398 62.026855 48.455421
-129.21899 64.491478 42.159836
-118.67017 66.822159 36.367107
-107.82384 69.013084 31.091702
-96.707047 71.058777 26.3468
-85.347542 72.95414 22.144245
-73.773621 74.694435 18.494537
-62.014114 76.27533 15.406785
-50.098255 77.692879 12.888695
-38.055557 78.94355 10.946546
-25.915537 80.024277 9.5851603
-13.705506 80.932564 8.8077974
-1.4629982 81.665642 8.6167326
10.781186 82.221672 9.012454
22.997875 82.599373 9.993906
35.156963 82.797813 11.558619
47.228287 82.816521 13.702672
59.181801 82.655449 16.420706
70.98774 82.315018 19.705927
82.616646 81.796074 23.550127
94.039536 81.099922 27.943705
105.22788 80.228294 32.875683
116.15377 79.183372 38.33374
126.78993 77.967766 44.304245
137.1098 76.584518 50.772285
147.08762 75.037071 57.721706
156.69846 73.329308 65.135155
165.91833 71.465477 72.99411
174.72421 69.450249 81.278946
183.0941 67.288635 89.968987
191.0071 64.986053 99.042511
198.44344 62.548244 108.47688
205.38457 59.981293 118.24854
211.81313 57.291603 128.3331
217.71306 54.485893 138.70537
223.06966 51.571163 149.33949
227.86951 48.554684 160.20892
232.10066 45.44397 171.28658
235.75253 42.246773 182.54485
238.81601 38.971046 193.95572
241.28346 35.624916 205.49088
243.14873 32.216637 217.12189
244.40726 28.754364 228.82085
245.05594 25.246559 240.55919
245.09264 21.704212 252.30011
244.51747 18.135302 264.01721
243.33189 14.548566 275.68182
241.53891 10.952889 287.26505
239.14301 7.3572111 298.73807
236.15015 3.7704878 310.07236
232.56784 0.2016598 321.23962
228.40501 -3.3403707 332.21204
223.67209 -6.8467655 342.96225
218.38089 -10.308773 353.46338
212.5446 -13.717752 363.68924
206.17784 -17.065189 373.61429
199.29648 -20.342728 383.21375
191.91771 -23.542185 392.46368
184.05998 -26.655569 401.34094
175.7429 -29.675106 409.82339
166.98723 -32.593254 417.88983
157.81485 -35.402729 425.52011
148.24866 -38.096512 432.69522
138.31253 -40.667873 439.39716
128.03128 -43.110394 445.60925
117.43056 -45.417973 451.31598
106.53684 -47.58485 456.50308
95.377289 -49.605618 461.15756
83.979729 -51.475224 465.26785
72.372574 -53.189011 468.82367
60.584724 -54.742702 471.81616
48.64547 -56.132423 474.23779
36.584351 -57.354729 476.08258
24.430817 -58.406609 477.34595
15.67649 -47.272671 481.35132
3.4390171 -48.035252 481.64102
-8.8042898 -48.621029 481.34399
-21.025131 -49.028702 480.46109
-33.193459 -49.257282 478.99451
-45.279102 -49.306213 476.94797
-57.252003 -49.175388 474.32657
-69.082336 -48.865135 471.13684
-80.740601 -48.376232 467.38681
-92.197731 -47.709904 463.08575
-103.42513 -46.867817 458.24451
-114.39477 -45.852077 452.87512
-125.07927 -44.665218 446.99103
-135.45197 -43.310215 440.60687
-145.48695 -41.79044 433.73868
-155.15916 -40.109699 426.40353
-164.44447 -38.272182 418.61978
-173.31966 -36.282482 410.40686
-181.76257 -34.145569 401.78528
-189.75214 -31.866777 392.77655
-197.26839 -29.451796 383.4032
-204.29254 -26.906652 373.68863
-210.80707 -24.237703 363.65704
-216.79572 -21.451607 353.33353
-222.24348 -18.555315 342.74384
-227.13681 -15.556054 331.91437
-231.46346 -12.4613 320.87213
-235.21262 -9.2787628 309.64465
-238.37494 -6.0163631 298.25986
-240.94254 -2.6821995 286.746
-242.90901 0.71549636 275.13159
-244.26953 4.1685038 263.44467
-245.02081 7.6687684 251.71255
-245.1604 11.205073 239.97284
-244.68816 14.769373 228.2522
-243.60529 18.352976 216.57921
-241.91451 21.947018 204.98273
-239.62009 25.542566 193.49158
-236.72774 29.130667 182.13437
-233.24469 32.702377 170.93941
-229.17964 36.248787 159.9346
-224.54277 39.761051 149.14742
-219.34563 43.2304 138.60478
-213.60123 46.648174 128.33299
-207.3239 50.005844 118.3577
-200.52933 53.295021 108.70381
-193.23448 56.507496 99.395439
-185.45758 59.635246 90.455811
-177.21805 62.67046 81.907265
-168.53645 65.60556 73.771149
-159.43449 68.433205 66.067772
-149.93486 71.146347 58.816383
-140.06131 73.738213 52.035088
-129.83847 76.202309 45.740826
-119.29185 78.532501 39.949314
-108.44779 80.722969 34.675022
-97.333344 82.768234 29.931116
-85.976227 84.6632 25.729446
-74.404739 86.40313 22.080503
-62.647705 87.983688 18.993401
-50.734352 89.40094 16.47584
-38.694183 90.651352 14.5341
-26.556715 91.73185 13.173
-14.349252 92.639938 12.395801
-2.1093168 93.372864 12.204776
10.132293 93.928787 12.600414
22.346415 94.306396 13.58166
34.502949 94.504799 15.146043
46.571732 94.523506 17.289646
58.522736 94.362473 20.007109
70.326187 94.02211 23.291639
81.952652 93.503273 27.135033
93.373138 92.807266 31.527685
104.55914 91.935822 36.458626
115.48273 90.891121 41.915535
126.11665 89.675774 47.884789
136.43436 88.292809 54.351467
146.41006 86.745697 61.299431
156.01889 85.038284 68.711319
165.23683 83.17485 76.568619
174.04085 81.160042 84.851715
182.40898 78.998886 93.539925
190.32031 76.696785 102.61155
197.7551 74.259491 112.04394
204.69476 71.693077 121.81354
211.12196 69.003952 131.89597
217.02068 66.198837 142.26607
222.37613 63.284718 152.89795
227.17499 60.268867 163.76511
231.40524 57.15881 174.84042
235.05635 53.962284 186.09633
238.11919 50.687248 197.50481
240.58611 47.341824 209.03754
242.45099 43.934258 220.66609
243.70926 40.472713 232.36259
244.3578 36.965645 244.09848
244.39449 33.424042 255.83693
243.81944 29.855883 267.55157
242.63412 26.269901 279.21371
240.84151 22.67498 290.79449
238.44611 19.080059 302.26514
235.45389 15.494088 313.59702
231.87233 11.926011 324.76196
227.71039 8.3847246 335.73206
222.97845 4.8790674 346.48001
217.68835 1.4177873 356.97891
211.8533 -1.9904742 367.20264
205.48787 -5.3372083 377.12561
198.60796 -8.6140585 386.72305
191.23074 -11.812842 395.97104
183.37466 -14.925572 404.84644
175.05933 -17.944475 413.32709
166.30551 -20.862011 421.39185
157.13506 -23.670893 429.02054
147.57086 -26.364109 436.19409
137.63683 -28.934929 442.89465
127.35774 -31.376938 449.10544
116.75925 -33.684032 454.81097
105.86782 -35.850456 459.99698
94.710609 -37.870796 464.65048
83.315445 -39.740009 468.75992
71.710739 -41.453438 472.31497
59.925362 -43.006802 475.30682
47.988617 -44.396233 477.72797
35.930035 -45.618279 479.57236
23.779055 -46.669937 480.83545
14.987255 -35.377842 484.24973
2.782943 -36.138355 484.53864
-9.4271879 -36.722546 484.24243
-21.614914 -37.129112 483.36191
-33.750267 -37.357071 481.89932
-45.803162 -37.405872 479.85831
-57.743618 -37.275402 477.24402
-69.541893 -36.965988 474.06293
-81.168564 -36.478409 470.32303
-92.594643 -35.813889 466.03366
-103.79162 -34.974083 461.20554
-114.73154 -33.961094 455.85071
-125.38708 -32.777454 449.98251
-135.73167 -31.426119 443.61569
-145.73947 -29.910465 436.76608
-155.38548 -28.234276 429.45081
-164.64561 -26.401739 421.68817
-173.49675 -24.417433 413.4975
-181.91679 -22.28631 404.89929
-189.8847 -20.013693 395.91498
-197.38058 -17.605255 386.56702
-204.38571 -15.067009 376.87878
-210.88258 -12.405292 366.87439
-216.855 -9.6267452 356.57883
-222.28801 -6.7383022 346.01782
-227.16808 -3.7471678 335.21771
-231.48299 -0.6607998 324.20538
-235.222 2.513113 313.00833
-238.37575 5.7666721 301.65439
-240.93639 9.0918016 290.17175
-242.89754 12.48029 278.58881
-244.25436 15.923941 266.93356
-245.0036 19.414721 255.23323
-245.14282 22.941442 243.52533
-244.67186 26.496084 231.83646
-243.59192 30.069977 220.19508
-241.90573 33.654278 208.63004
-239.61752 37.240082 197.17003
-236.733 40.818462 185.84358
-233.2594 44.380493 174.67896
-229.20537 47.917294 163.70398
-224.58105 51.42004 152.94603
-219.39801 54.879986 142.43195
-213.66917 58.288502 132.188
-207.40886 61.63707 122.23974
-200.63269 64.917336 112.61201
-193.35762 68.121109 103.32886
-185.60179 71.240379 94.41346
-177.38458 74.267372 85.888084
-168.72652 77.194511 77.77401
-159.6492 80.014503 70.091507
-150.17532 82.720291 62.859768
-140.32852 85.30513 56.096851
-130.13338 87.76255 49.819645
-119.61535 90.086433 44.043827
-108.80068 92.270958 38.783825
-97.716347 94.310684 34.052773
