# .PCD v0.7 - Point Cloud Data file format
VERSION 0.7
FIELDS x y z
SIZE 4 4 4
TYPE F F F
COUNT 1 1 1
WIDTH 1612
HEIGHT 1
VIEWPOINT 0 0 0 1 0 0 0
POINTS 1612
DATA ascii
196.98396 430.24509 39.027931
197.6398 429.99048 39.099667
198.29637 429.77463 39.170635
198.94952 429.5983 39.240398
199.59372 429.46219 39.308384
200.22017 429.367 39.373692
200.80643 429.31378 39.434029
201.34424 429.30298 39.488552
201.95993 429.32962 39.550125
202.60423 429.39545 39.613735
203.26447 429.5007 39.678097
203.93385 429.64526 39.742527
204.60765 429.82874 39.806557
205.28206 430.05066 39.869812
205.95381 430.31039 39.93198
206.62 430.60712 39.992779
207.27792 430.93997 40.051964
207.92511 431.30789 40.109299
208.55916 431.70978 40.16457
209.17786 432.14432 40.217583
209.77905 432.6102 40.268147
210.36072 433.10587 40.316093
210.92093 433.62979 40.361259
211.45781 434.18021 40.403496
211.96965 434.75534 40.442665
212.45479 435.35327 40.478645
212.91167 435.97192 40.511322
213.33881 436.60922 40.540592
213.73488 437.26282 40.566372
214.0986 437.93036 40.588581
214.42883 438.60922 40.607166
214.7245 439.29669 40.622074
214.98465 439.98969 40.633278
215.20844 440.68478 40.640762
215.39505 441.37796 40.644539
215.54384 442.06415 40.644646
215.6541 442.73587 40.641178
215.72499 443.37866 40.634369
216.36143 443.7301 40.389874
216.36673 444.34793 40.376984
216.33498 445.03461 40.35886
216.26463 445.74783 40.336258
216.15555 446.47614 40.309422
216.00786 447.21283 40.278503
215.82191 447.95297 40.243649
215.59824 448.69266 40.204998
215.33746 449.42831 40.162689
215.04037 450.15689 40.116867
214.70789 450.87546 40.067688
214.341 451.58133 40.015316
213.94087 452.27191 39.959919
213.50877 452.94479 39.901676
213.04604 453.59769 39.840778
212.55417 454.22839 39.77742
212.03474 454.83481 39.711811
211.48947 455.41492 39.644161
210.92014 455.96686 39.574696
210.32866 456.48889 39.503643
209.71706 456.97928 39.431248
209.08746 457.43649 39.357758
208.44215 457.85907 39.283436
207.78351 458.2457 39.208546
207.11414 458.59509 39.133385
206.4368 458.90619 39.05825
205.75456 459.17795 38.983475
205.07094 459.40948 38.909435
204.39006 459.60001 38.836563
203.71738 459.74878 38.765427
203.0612 459.8551 38.696877
202.44014 459.91803 38.632816
201.88608 459.93613 38.576492
201.25278 459.91519 38.513016
200.58583 459.85355 38.447033
199.90074 459.75085 38.380108
199.20512 459.60724 38.313007
198.50418 459.423 38.246254
197.80199 459.19867 38.180244
197.10201 458.93488 38.115314
196.40733 458.63239 38.051765
195.72079 458.29214 37.989857
195.04501 457.91519 37.929829
194.38251 457.50269 37.871914
193.7356 457.05594 37.816322
193.10654 456.57635 37.763241
192.49747 456.06546 37.71286
191.9104 455.5249 37.665344
191.34729 454.95642 37.620853
190.80995 454.36188 37.579529
190.30014 453.74332 37.541508
189.81949 453.10275 37.506908
189.36951 452.44244 37.475834
188.95168 451.76471 37.44838
188.56729 451.07208 37.424629
188.21758 450.36716 37.404644
187.90367 449.6528 37.388481
187.62657 448.93213 37.376167
187.38719 448.20862 37.367725
187.18636 447.48636 37.363148
187.0248 446.77036 37.362396
186.90323 446.06784 37.365391
186.82245 445.39178 37.371929
186.78484 444.79608 37.381077
186.78534 444.15576 37.395039
186.82353 443.46338 37.41394
186.90039 442.74701 37.437267
187.01599 442.01688 37.464802
187.17015 441.2793 37.496391
187.36247 440.53897 37.531891
187.59244 439.79974 37.571171
187.85938 439.06503 37.614082
188.16248 438.33795 37.660477
188.50082 437.62134 37.710205
188.87338 436.91788 37.7631
189.27898 436.2301 37.818989
189.71634 435.56039 37.877689
190.18407 434.9111 37.939014
190.68068 434.28433 38.002766
191.20457 433.68222 38.068733
191.75403 433.10672 38.136703
192.32722 432.55966 38.206451
192.92223 432.04288 38.277748
193.53702 431.55795 38.350346
194.1694 431.10645 38.423992
194.81714 430.68982 38.498432
195.47775 430.30939 38.573387
196.14868 429.96634 38.648567
196.82706 429.66177 38.723663
197.50978 429.39673 38.798344
198.19327 429.17203 38.872219
198.8732 428.98849 38.944843
199.54381 428.8468 39.015617
200.19594 428.74768 39.083603
200.80624 428.69229 39.146412
201.3661 428.68103 39.203175
202.00702 428.70877 39.267269
202.67775 428.77731 39.333485
203.36505 428.8869 39.400486
204.06189 429.03735 39.46756
204.76331 429.22836 39.534214
205.46536 429.45941 39.600063
206.16466 429.72977 39.66478
206.85815 430.03867 39.728073
207.54306 430.38516 39.78968
208.21677 430.76816 39.849369
208.87682 431.18652 39.906906
209.52089 431.63889 39.96209
210.14673 432.12384 40.014729
210.75224 432.63986 40.06464
211.3354 433.18524 40.11166
211.89432 433.75824 40.155624
212.42714 434.35696 40.196404
212.93216 434.97937 40.233856
213.40776 435.62341 40.267872
213.85243 436.28683 40.298344
214.26474 436.96722 40.32518
214.64337 437.66214 40.348301
214.98714 438.36884 40.367645
215.29492 439.08447 40.383163
215.56575 439.80588 40.394829
215.79869 440.52948 40.402618
215.99298 441.2511 40.406551
216.14786 441.96539 40.406662
216.26263 442.66467 40.403053
216.33643 443.3338 40.395962
216.93767 443.70178 40.11935
216.94316 444.34232 40.105988
216.91025 445.0542 40.087193
216.83733 445.79364 40.063763
216.72423 446.54871 40.035938
216.57111 447.31247 40.003887
216.37833 448.07983 39.967751
216.14642 448.84668 39.927681
215.87608 449.60938 39.883816
215.56807 450.36472 39.836311
215.22336 451.10971 39.785324
214.843 451.84149 39.731026
214.42818 452.55746 39.673592
213.98018 453.2551 39.613213
213.50046 453.93198 39.550076
212.99051 454.58585 39.48439
212.452 455.21451 39.41637
211.88669 455.81595 39.346233
211.29643 456.38818 39.274216
210.68323 456.92938 39.200554
210.04915 457.43781 39.1255
209.39641 457.91183 39.049309
208.72739 458.34995 38.972252
208.04456 458.75076 38.894611
207.35059 459.11301 38.816689
206.64835 459.43552 38.738792
205.94106 459.71729 38.66127
205.2323 459.95734 38.584507
204.5264 460.15485 38.508961
203.82901 460.30908 38.435207
203.14871 460.41931 38.36414
202.50484 460.48453 38.297726
201.9304 460.5033 38.23933
201.27383 460.4816 38.173527
200.5824 460.41769 38.105118
199.87212 460.31122 38.035732
199.15094 460.16232 37.966167
198.42424 459.97134 37.896957
197.69624 459.73877 37.828526
196.97054 459.46527 37.761211
196.25034 459.15167 37.695324
195.53857 458.79892 37.631138
194.83797 458.40811 37.568909
194.15111 457.98047 37.508865
193.48044 457.5173 37.451229
192.82826 457.02008 37.396198
192.19681 456.49042 37.343964
191.58817 455.92999 37.294704
191.00436 455.34061 37.248577
190.44728 454.72424 37.205738
189.91873 454.08292 37.166317
189.42041 453.41882 37.130444
188.95392 452.73425 37.098228
188.52072 452.03162 37.069767
188.12221 451.31354 37.045143
187.75964 450.5827 37.024426
187.4342 449.8421 37.007668
187.14693 449.09497 36.994904
186.89874 448.34488 36.986149
186.69054 447.59604 36.981403
186.52304 446.85376 36.980625
186.397 446.1254 36.98373
186.31326 445.4245 36.990505
186.27428 444.80695 36.999992
186.27478 444.14307 37.014469
186.31439 443.42523 37.034065
186.39407 442.68256 37.058247
186.51392 441.9256 37.086792
186.67374 441.16092 37.119541
186.87312 440.39337 37.156349
187.11154 439.62698 37.197071
187.38829 438.8653 37.241558
187.70253 438.11151 37.289658
188.05331 437.36856 37.341213
188.43956 436.63922 37.396049
188.86005 435.92618 37.453991
189.31348 435.23187 37.514851
189.7984 434.55872 37.57843
190.31326 433.90894 37.644524
190.85641 433.2847 37.712917
191.42606 432.68802 37.783386
192.02031 432.12088 37.855698
192.63718 431.58508 37.929611
193.27455 431.08234 38.004875
193.93019 430.61426 38.08123
194.60172 430.18231 38.158405
195.28662 429.7879 38.236111
195.98218 429.43225 38.314056
196.6855 429.11652 38.391914
197.39331 428.84171 38.469334
198.10191 428.60876 38.545929
198.80682 428.41849 38.62122
199.50208 428.27158 38.694595
200.17816 428.16882 38.765076
200.8109 428.11139 38.830196
201.39133 428.09973 38.889042
202.0558 428.12848 38.955494
202.75117 428.19952 39.024143
203.46373 428.31314 39.093605
204.18617 428.46915 39.163143
204.91336 428.66718 39.232246
205.64122 428.90668 39.300514
206.36621 429.18698 39.367611
207.08519 429.50723 39.433228
207.79526 429.86646 39.497101
208.49373 430.26355 39.558979
209.17804 430.69727 39.618633
209.84576 431.16626 39.675846
210.4946 431.66904 39.730419
211.12238 432.20401 39.782166
211.72696 432.76944 39.83091
212.30641 433.36349 39.876495
212.85881 433.98419 39.91877
213.38239 434.62952 39.9576
213.87547 435.29721 39.992863
214.33647 435.98499 40.024456
214.76393 436.6904 40.052277
215.15648 437.41083 40.076248
215.51288 438.14352 40.096306
215.83199 438.88544 40.112392
216.11275 439.63336 40.124485
216.35426 440.38354 40.132561
216.55568 441.13168 40.136639
216.71625 441.87225 40.136753
216.83525 442.5972 40.133015
216.91176 443.29092 40.12566
217.48026 443.67429 39.816532
217.48593 444.33597 39.802727
217.45193 445.07141 39.783314
217.3766 445.83527 39.759109
217.25975 446.61533 39.730366
217.10158 447.40433 39.697254
216.90242 448.19705 39.659924
216.66286 448.98926 39.618526
216.38358 449.77719 39.573212
216.06538 450.5575 39.524136
215.70927 451.32709 39.471466
215.31635 452.08307 39.415371
214.8878 452.82272 39.356041
214.425 453.5434 39.293663
213.92941 454.24268 39.228439
213.4026 454.91815 39.160583
212.8463 455.56763 39.090313
212.2623 456.18893 39.01786
211.65253 456.78009 38.943459
211.01904 457.33917 38.867363
210.364 457.86441 38.789825
209.6897 458.3541 38.711117
208.99855 458.8067 38.631512
208.29314 459.22076 38.551308
207.57622 459.595 38.470806
206.85077 459.92816 38.390335
206.12009 460.21924 38.310249
205.38791 460.46722 38.230949
204.65868 460.67126 38.152905
203.93822 460.8306 38.076714
203.23544 460.94449 38.003296
202.57027 461.01184 37.934689
201.97685 461.03125 37.874363
201.29857 461.00882 37.806381
200.58427 460.94281 37.73571
199.85052 460.83282 37.664028
199.1055 460.67902 37.592167
198.35477 460.48169 37.520672
197.60271 460.24142 37.449974
196.85301 459.95889 37.380436
196.10901 459.63492 37.31237
195.3737 459.27051 37.246063
194.64995 458.86679 37.181774
193.94038 458.42499 37.119747
193.24753 457.9465 37.060204
192.57379 457.43286 37.003353
191.92146 456.88568 36.949394
191.29271 456.30673 36.898506
190.68959 455.69788 36.850853
190.11411 455.06113 36.806595
189.56808 454.39862 36.765873
189.05328 453.71255 36.728817
188.57137 453.00534 36.695534
188.12384 452.27951 36.666134
187.71216 451.53766 36.640694
187.33762 450.78268 36.619293
187.0014 450.01761 36.601978
186.70462 449.24576 36.588791
186.44826 448.47086 36.57975
186.23315 447.69727 36.574848
186.06012 446.93045 36.574043
185.92992 446.17801 36.577251
185.8434 445.45395 36.584251
185.80313 444.81595 36.594048
185.80365 444.13016 36.609005
185.84456 443.38858 36.62925
185.92688 442.62134 36.654228
186.05069 441.83939 36.68372
186.21579 441.04941 36.717552
186.42178 440.25647 36.755577
186.66808 439.46475 36.797642
186.95396 438.67789 36.843601
187.27859 437.89917 36.893291
187.64098 437.13165 36.946552
188.03999 436.37823 37.003201
188.4744 435.6416 37.063061
188.94281 434.92435 37.125931
189.44377 434.22891 37.191612
189.97565 433.55765 37.259892
190.53674 432.91278 37.330544
191.12523 432.29639 37.403343
191.73912 431.71051 37.478043
192.37639 431.15698 37.554401
193.03484 430.63763 37.632153
193.71214 430.15405 37.711033
194.40587 429.70786 37.79076
195.11342 429.30038 37.871037
195.83199 428.93298 37.951557
196.55855 428.60681 38.031986
197.28976 428.32291 38.111969
198.02179 428.08228 38.191093
198.75 427.88568 38.268875
199.46825 427.73395 38.344677
200.16669 427.62778 38.417488
200.82033 427.56845 38.48476
201.41995 427.5564 38.545551
202.1064 427.58609 38.614201
202.82475 427.65952 38.68512
203.56087 427.77689 38.756878
204.30719 427.93805 38.828716
205.05843 428.14261 38.900105
205.81035 428.39005 38.970631
206.55931 428.6796 39.03994
207.30205 429.01044 39.107731
208.0356 429.38153 39.173714
208.75716 429.79178 39.23764
209.4641 430.23984 39.299263
210.1539 430.72433 39.358368
210.82419 431.24374 39.414745
211.4727 431.79639 39.468201
212.09729 432.38049 39.518559
212.69589 432.9942 39.565647
213.26656 433.63541 39.609322
213.80745 434.30206 39.649437
214.31682 434.99185 39.685867
214.79306 435.70236 39.718502
215.23465 436.43109 39.747242
215.64018 437.17532 39.772007
216.00836 437.93225 39.792725
216.33801 438.6987 39.809349
216.62807 439.47134 39.821838
216.87756 440.24634 39.830181
217.08563 441.0192 39.834393
217.25153 441.78424 39.834515
217.37445 442.53317 39.83065
217.45349 443.24982 39.823055
217.99126 443.64746 39.480831
217.9971 444.32889 39.466614
217.96208 445.08627 39.446625
217.88449 445.87292 39.421696
217.76418 446.67621 39.392094
217.60127 447.48874 39.357994
217.39618 448.30511 39.319553
217.14948 449.12094 39.27692
216.86186 449.93237 39.230255
216.53418 450.73593 39.179714
216.16745 451.5285 39.125473
215.7628 452.30701 39.067707
215.32149 453.06873 39.006607
214.84488 453.81088 38.942368
214.33452 454.53101 38.875202
213.79201 455.22662 38.805321
213.2191 455.89548 38.732956
212.61769 456.53531 38.65834
211.98973 457.1441 38.581722
211.33736 457.71985 38.503357
210.66278 458.26074 38.423508
209.96837 458.76505 38.342453
209.25661 459.23114 38.260475
208.53017 459.65756 38.177876
207.79187 460.04294 38.094975
207.0448 460.38605 38.012104
206.29233 460.68579 37.929634
205.5383 460.94116 37.847969
204.78734 461.15131 37.767593
204.04539 461.3154 37.689133
203.32166 461.43268 37.613525
202.63664 461.50204 37.54287
202.02554 461.52203 37.480747
201.32703 461.49893 37.410736
200.59143 461.43094 37.337959
199.8358 461.31769 37.264141
199.06856 461.15927 37.190136
198.29544 460.95609 37.116508
197.52095 460.70865 37.043701
196.7489 460.41769 36.972088
195.98271 460.08405 36.901997
195.22549 459.70877 36.83371
194.48015 459.29303 36.767506
193.74942 458.83804 36.703629
193.0359 458.34531 36.642311
192.34209 457.81635 36.583767
191.67029 457.25284 36.528194
191.0228 456.65662 36.475788
190.4017 456.0296 36.426716
189.80904 455.37387 36.381142
189.24673 454.69159 36.339203
188.7166 453.98508 36.301041
188.22031 453.25681 36.266766
187.75943 452.50931 36.236488
187.33548 451.74533 36.210293
186.94975 450.96783 36.188251
186.60353 450.17993 36.170422
186.2979 449.38507 36.156841
186.03387 448.5871 36.14753
185.81236 447.79044 36.142479
185.63417 447.00073 36.141651
185.50009 446.22586 36.144955
185.411 445.48022 36.152164
185.36952 444.82318 36.162254
185.37006 444.11694 36.177654
185.41219 443.35327 36.198502
185.49696 442.56314 36.224228
185.62447 441.75784 36.254601
185.79449 440.94434 36.28944
186.00662 440.12778 36.328598
186.26025 439.31244 36.371918
186.55467 438.50211 36.419247
186.88899 437.70016 36.470421
187.26218 436.90976 36.525269
187.6731 436.13385 36.583607
188.12044 435.37527 36.645252
188.60283 434.63663 36.709995
189.11871 433.92047 36.777637
189.66646 433.22919 36.84795
190.24429 432.56506 36.920712
190.85031 431.9303 36.995678
191.48253 431.32693 37.072609
192.13879 430.75693 37.151245
192.81688 430.22208 37.231316
193.51437 429.72409 37.312546
194.22879 429.26456 37.39465
194.95744 428.84494 37.477322
195.69743 428.46658 37.560242
196.44566 428.13071 37.643074
197.19868 427.83835 37.725437
197.95253 427.59052 37.806923
198.70247 427.38806 37.887024
199.44212 427.23181 37.965084
200.16139 427.1225 38.04007
200.83453 427.06137 38.109348
201.45203 427.04898 38.171951
202.15894 427.07956 38.242645
202.89871 427.15515 38.315681
203.65678 427.27603 38.38958
204.42537 427.44199 38.463558
205.19901 427.65265 38.537075
205.97334 427.90747 38.609703
206.74463 428.20566 38.681084
207.50954 428.54639 38.750893
208.26495 428.92853 38.818844
209.00803 429.35098 38.884674
209.73604 429.81241 38.948139
210.44641 430.31137 39.009007
211.13669 430.84625 39.067062
211.80455 431.41537 39.122112
212.44775 432.01691 39.173969
213.06421 432.6489 39.222466
213.65189 433.30927 39.267441
214.20891 433.99579 39.30875
214.73347 434.70612 39.346268
215.22392 435.43784 39.379879
215.67868 436.18829 39.409477
216.09631 436.95474 39.434978
216.47546 437.73422 39.456314
216.81494 438.52353 39.473431
217.11365 439.31921 39.486294
217.37057 440.11731 39.494888
217.58485 440.91321 39.499226
217.75569 441.70108 39.499348
217.88229 442.47235 39.495369
217.96368 443.21036 39.487549
218.47234 443.62131 39.111446
218.47833 444.32108 39.096848
218.44238 445.09885 39.076317
218.3627 445.90668 39.05072
218.23914 446.73163 39.020321
218.07185 447.56604 38.985302
217.86124 448.40439 38.945824
217.60789 449.24219 38.902042
217.31252 450.07547 38.854122
216.97603 450.9007 38.802219
216.59941 451.7146 38.746517
216.18387 452.5141 38.687199
215.73065 453.2963 38.624451
215.24123 454.05847 38.558483
214.7171 454.79797 38.489506
214.15997 455.51233 38.417744
213.57166 456.19919 38.343426
212.95403 456.85626 38.266804
212.30917 457.48145 38.188122
211.63922 458.07272 38.107643
210.94647 458.62817 38.025646
210.23335 459.14606 37.942406
209.50243 459.62469 37.858219
208.75642 460.06259 37.773399
207.99825 460.45837 37.688263
207.23105 460.81073 37.603161
206.4583 461.11856 37.518467
205.68398 461.3808 37.434605
204.91277 461.59659 37.352062
204.15085 461.76511 37.271488
203.40762 461.88553 37.193848
202.70416 461.95679 37.121288
202.07658 461.97729 37.057491
201.35927 461.95358 36.985596
200.60385 461.88376 36.910858
199.82787 461.76746 36.835052
199.03996 461.60477 36.759052
198.24603 461.39612 36.683441
197.45068 461.142 36.608673
196.65784 460.8432 36.535133
195.871 460.50061 36.46315
195.09338 460.11523 36.393028
194.32796 459.68826 36.325039
193.57756 459.22104 36.259441
192.84482 458.71503 36.196472
192.13231 458.17181 36.136349
191.44243 457.59314 36.079285
190.77748 456.98083 36.025463
190.13966 456.33694 35.975071
189.53105 455.66354 35.928265
188.9536 454.96289 35.885201
188.40918 454.23737 35.846008
187.89951 453.48944 35.810814
187.42624 452.72183 35.779716
186.99086 451.93729 35.752815
186.59474 451.13885 35.730183
186.2392 450.32971 35.711872
185.92534 449.51346 35.697926
185.65421 448.69397 35.688362
185.42673 447.87585 35.683178
185.24373 447.06488 35.682327
185.10603 446.26913 35.685719
185.01454 445.50342 35.693123
184.97194 444.82867 35.703484
184.9725 444.10342 35.719299
185.01576 443.31918 35.740711
185.10283 442.50778 35.767128
185.23376 441.68079 35.798317
185.40837 440.84537 35.834099
185.62621 440.00677 35.87431
185.88667 439.16949 35.918797
186.18903 438.33734 35.9674
186.53235 437.51379 36.019951
186.91559 436.70212 36.076279
187.33755 435.9053 36.136189
187.79697 435.12628 36.19949
188.29234 434.36774 36.26598
188.82213 433.63229 36.335442
189.38463 432.92239 36.40765
189.97803 432.24039 36.482368
190.60037 431.58853 36.559357
191.2496 430.96893 36.638359
191.92355 430.38354 36.719112
192.61989 429.83429 36.801342
193.33618 429.32291 36.884762
194.06984 428.85098 36.969074
194.81812 428.42007 37.053974
195.57803 428.03152 37.139126
196.34642 427.68658 37.22419
197.11972 427.38635 37.308773
197.89388 427.13187 37.392452
198.664 426.92395 37.474712
199.42358 426.76349 37.554874
200.16223 426.65121 37.631878
200.8535 426.58847 37.703022
201.48764 426.57574 37.767311
202.21359 426.60715 37.839912
202.97328 426.68475 37.914913
203.75179 426.8089 37.990803
204.54106 426.97931 38.066772
205.33554 427.19568 38.142269
206.13072 427.45734 38.216854
206.92279 427.76358 38.290157
207.7083 428.11346 38.361847
208.48407 428.50592 38.431629
209.24716 428.93976 38.499233
209.99478 429.4136 38.564407
210.72427 429.92599 38.626911
211.43315 430.47528 38.686535
212.119 431.05975 38.743065
212.77953 431.67749 38.796322
213.41258 432.32651 38.846123
214.0161 433.00464 38.892307
214.58812 433.70966 38.934731
215.12682 434.43912 38.973259
215.63048 435.19055 39.007774
216.09747 435.96121 39.03817
216.52635 436.74829 39.064358
216.91573 437.54877 39.086269
217.26434 438.35934 39.103848
217.57109 439.17645 39.117058
217.83495 439.99606 39.125881
218.05499 440.81339 39.130337
218.23042 441.62247 39.130463
218.36043 442.41452 39.126377
218.44402 443.17242 39.118343
218.92493 443.59567 38.707348
218.93108 444.31247 38.69239
218.89424 445.10919 38.67136
218.81264 445.93668 38.645142
218.68605 446.78171 38.614002
218.51469 447.63641 38.578133
218.29897 448.49518 38.537693
218.03944 449.35336 38.492847
217.73689 450.20694 38.443756
217.3922 451.05225 38.390594
217.00642 451.88596 38.333534
216.58076 452.7049 38.27277
216.11653 453.50613 38.208496
215.61517 454.28687 38.140923
215.07831 455.04437 38.070267
214.50763 455.77612 37.996758
213.90497 456.47968 37.920635
213.27232 457.15277 37.842148
212.61177 457.79315 37.761551
211.92551 458.3988 37.679115
211.21591 458.96777 37.595119
210.48544 459.49826 37.509853
209.73672 459.98856 37.423618
208.97255 460.43713 37.336731
208.19592 460.84253 37.249527
207.41005 461.20346 37.162354
206.6185 461.51877 37.075596
205.82533 461.78741 36.989693
205.03535 462.00845 36.905144
204.2549 462.18106 36.822609
203.49358 462.30441 36.743076
202.77299 462.37741 36.668751
202.13016 462.39844 36.603401
201.39537 462.37411 36.529758
200.62158 462.30258 36.453197
199.82671 462.18347 36.375549
199.01962 462.01682 36.297699
198.20638 461.80307 36.220249
197.39166 461.54282 36.143661
196.57951 461.23672 36.068333
195.77354 460.88577 35.994598
194.97699 460.49103 35.922768
194.19295 460.05368 35.853123
193.42427 459.57507 35.785931
192.67371 459.05673 35.721428
191.94386 458.50031 35.659843
191.23718 457.90756 35.601387
190.55606 457.28036 35.546257
189.90271 456.62079 35.49464
189.27928 455.931 35.446693
188.68777 455.21332 35.40258
188.13011 454.47009 35.362434
187.60805 453.70398 35.326382
187.12325 452.91769 35.294533
186.67726 452.11404 35.266975
186.27153 451.29617 35.24379
185.90732 450.46738 35.225033
185.58582 449.63123 35.210747
185.30809 448.79181 35.200954
185.07507 447.9538 35.195641
184.88762 447.12308 35.194771
184.74657 446.30798 35.198246
184.65285 445.52359 35.20583
184.60922 444.83246 35.216442
184.60979 444.08954 35.232643
184.65411 443.28619 35.254574
184.74329 442.45505 35.281635
184.87741 441.60794 35.313583
185.05626 440.75217 35.350235
185.2794 439.89319 35.391426
185.54622 439.03552 35.436996
185.85593 438.18311 35.486782
186.2076 437.33954 35.540611
186.60016 436.50809 35.598309
187.03241 435.69189 35.659676
187.50299 434.89392 35.724522
188.01044 434.11691 35.792629
188.55312 433.36356 35.863781
189.1293 432.63638 35.937744
189.73714 431.93781 36.014286
190.37463 431.27008 36.093147
191.03967 430.63538 36.174072
191.73001 430.03577 36.25679
192.4433 429.47314 36.341019
193.17703 428.94928 36.426468
193.92854 428.46591 36.512833
194.69502 428.02451 36.5998
195.47345 427.6265 36.687027
196.26053 427.27316 36.774155
197.05264 426.96561 36.860802
197.84564 426.70493 36.946514
198.63452 426.49197 37.030777
199.41258 426.32758 37.112892
200.1692 426.21259 37.191769
200.8773 426.14832 37.264645
201.52687 426.13525 37.330498
202.27049 426.16742 37.404865
203.04868 426.24695 37.481693
203.84612 426.37408 37.559425
204.6546 426.54868 37.637245
205.46841 426.77029 37.714581
206.28296 427.03833 37.790981
207.0943 427.35202 37.866066
207.89893 427.71042 37.939503
208.69357 428.11243 38.010983
209.47523 428.55682 38.080235
210.24104 429.04221 38.146992
210.98831 429.56705 38.211018
211.71443 430.12973 38.272091
212.41696 430.72839 38.330002
213.09358 431.36118 38.384552
213.74203 432.026 38.435566
214.36024 432.72064 38.482876
214.94618 433.44281 38.526329
215.49799 434.19003 38.565796
216.0139 434.95975 38.601151
216.49228 435.74918 38.632286
216.93158 436.55542 38.659111
217.33043 437.37537 38.681557
217.68755 438.20566 38.699562
218.00175 439.04266 38.713093
218.27203 439.8822 38.722134
218.49744 440.71945 38.726696
218.67714 441.54822 38.726826
218.8103 442.35953 38.722637
218.89592 443.13586 38.714413
219.35025 443.57056 38.267216
219.35654 444.3031 38.25193
219.31889 445.11731 38.230438
219.23549 445.96298 38.203644
219.10612 446.82657 38.171818
218.931 447.70007 38.135159
218.71053 448.57773 38.093834
218.44531 449.45477 38.048
218.13611 450.32709 37.997833
217.78384 451.19098 37.943501
217.38959 452.043 37.885189
216.95457 452.87994 37.82309
216.48013 453.69879 37.757404
215.96777 454.49667 37.688343
215.4191 455.27084 37.616135
214.83588 456.01865 37.541012
214.21999 456.7377 37.463215
213.57343 457.42554 37.382999
212.89835 458.08002 37.300632
212.19702 458.69897 37.216385
211.47182 459.28046 37.130547
210.7253 459.8226 37.043407
209.96013 460.32367 36.955276
209.17917 460.7821 36.866482
208.38547 461.19641 36.777359
207.58232 461.56528 36.688267
206.77339 461.88751 36.599606
205.96278 462.16205 36.511814
205.15544 462.38794 36.425407
204.35783 462.56436 36.341057
203.57979 462.69043 36.259777
202.84337 462.76501 36.183819
202.1864 462.7865 36.117035
201.43547 462.76166 36.041771
200.64467 462.68857 35.963531
199.83232 462.5668 35.884174
199.00751 462.39651 35.804611
198.17638 462.17807 35.72546
197.34377 461.91208 35.64719
196.51378 461.59927 35.570206
195.69009 461.2406 35.49485
194.87604 460.83716 35.42144
194.07475 460.3902 35.350269
193.2892 459.90109 35.281597
192.52214 459.37137 35.215675
191.77625 458.8027 35.15274
191.05405 458.19693 35.092999
190.35796 457.55597 35.036659
189.69025 456.8819 34.983906
189.05312 456.17694 34.93491
188.44861 455.44348 34.889824
187.87869 454.68393 34.848797
187.34515 453.901 34.811951
186.8497 453.09741 34.7794
186.39392 452.27612 34.751236
185.97926 451.44028 34.727543
185.60704 450.59323 34.708374
185.27847 449.73874 34.693775
184.99464 448.88086 34.683765
184.75652 448.02441 34.678337
184.56494 447.17545 34.677448
184.42079 446.34244 34.680996
184.32501 445.54083 34.688747
184.28043 444.8345 34.699596
184.28101 444.07523 34.716152
184.32631 443.25427 34.738564
184.41743 442.40485 34.766224
184.5545 441.53912 34.79887
184.73729 440.66455 34.836327
184.96533 439.78668 34.878422
185.23802 438.91019 34.924995
185.55453 438.03903 34.975876
185.91393 437.17691 35.030891
186.31512 436.32721 35.089851
186.75687 435.49307 35.152569
187.23779 434.67755 35.218838
187.75638 433.88348 35.288445
188.31099 433.11356 35.36116
188.89984 432.37042 35.436749
189.52103 431.65646 35.514969
190.17253 430.97406 35.595566
190.85219 430.32541 35.678268
191.55771 429.71262 35.762802
192.28667 429.13763 35.848885
193.03651 428.60229 35.936211
193.80455 428.10828 36.024475
194.58788 427.65717 36.11335
195.38339 427.25043 36.202496
196.18777 426.88931 36.291542
196.9973 426.57501 36.380089
197.80774 426.30859 36.46769
198.61394 426.09097 36.553799
199.4091 425.92297 36.637718
200.18236 425.80545 36.71833
200.90601 425.73975 36.792809
201.56985 425.72641 36.860107
202.32982 425.75931 36.936111
203.12511 425.84058 37.014626
203.94006 425.97049 37.09407
204.76633 426.14893 37.173599
205.59802 426.3754 37.252632
206.43047 426.64932 37.330711
207.25964 426.96991 37.407448
208.08194 427.33618 37.482498
208.89406 427.74704 37.55555
209.69289 428.20117 37.62632
210.47554 428.69724 37.694546
211.23921 429.23361 37.759979
211.98129 429.80865 37.822395
212.69928 430.4205 37.881577
213.39075 431.06717 37.937325
214.05347 431.74658 37.98946
214.68524 432.45651 38.037811
215.28407 433.19455 38.082222
215.84801 433.95819 38.122555
216.37526 434.74481 38.158684
216.86414 435.55161 38.190506
217.3131 436.37555 38.217922
217.72072 437.21353 38.24086
218.08566 438.06207 38.259262
218.40678 438.91745 38.273087
218.683 439.77545 38.282326
218.91336 440.6311 38.286987
219.09702 441.47809 38.287121
219.23311 442.30722 38.282845
219.32062 443.10065 38.274433
219.74936 443.54581 37.789391
219.75577 444.29288 37.773804
219.71738 445.12323 37.751884
219.63232 445.98566 37.724556
219.5004 446.86633 37.692104
219.32181 447.75714 37.654716
219.09697 448.65219 37.612572
218.82649 449.5466 37.565834
218.51117 450.43619 37.514671
218.15192 451.3172 37.459263
217.74986 452.1861 37.399796
217.30623 453.03961 37.336464
216.82239 453.87469 37.269478
216.29988 454.68839 37.199051
215.74034 455.47787 37.125412
215.14555 456.24051 37.048801
214.51747 456.97379 36.969463
213.85811 457.67526 36.887661
213.16966 458.34271 36.803661
212.45444 458.97394 36.717743
211.71487 459.56693 36.630203
210.95355 460.11981 36.541336
210.17323 460.6308 36.451462
209.3768 461.0983 36.360909
208.56738 461.52081 36.27002
207.74832 461.897 36.179165
206.92337 462.22562 36.088749
206.09669 462.50558 35.999214
205.27338 462.73596 35.911098
204.45996 462.91586 35.825077
203.6665 463.04443 35.742188
202.9155 463.12048 35.664722
202.24551 463.1424 35.596615
201.47972 463.11707 35.519863
200.67325 463.04254 35.440071
199.84482 462.91837 35.359142
199.00366 462.74469 35.278008
198.15607 462.52194 35.197285
197.30696 462.25067 35.117466
196.46053 461.93167 35.038956
195.62053 461.56589 34.962109
194.79034 461.15448 34.887245
193.97319 460.69864 34.814663
193.17207 460.19986 34.744629
192.38982 459.65964 34.677402
191.62915 459.07971 34.61322
190.89264 458.46191 34.552296
190.18275 457.80826 34.494839
189.50183 457.12085 34.44104
188.85208 456.40195 34.391071
188.23561 455.65393 34.345097
187.65439 454.87936 34.303257
187.11028 454.0809 34.265682
186.60501 453.26138 34.232487
186.14021 452.42383 34.203766
185.71733 451.57144 34.1796
185.33775 450.70761 34.160053
185.00267 449.83618 34.145164
184.71321 448.9613 34.134956
184.47037 448.08792 34.129421
184.27501 447.22214 34.128513
184.12799 446.37262 34.132133
184.03032 445.55511 34.140038
183.98485 444.83481 34.1511
183.98544 444.06052 34.167984
184.03163 443.22327 34.190842
184.12457 442.35703 34.219048
184.26436 441.47415 34.252342
184.45076 440.58224 34.290539
184.68333 439.68701 34.333469
184.96141 438.79312 34.380962
185.28419 437.90472 34.432854
185.65071 437.02551 34.488956
186.05984 436.159 34.549088
186.51035 435.30835 34.613049
187.00079 434.47665 34.68063
187.52966 433.66687 34.751614
188.09525 432.88171 34.825768
188.69577 432.12381 34.902855
189.32927 431.39572 34.982628
189.99367 430.6998 35.064816
190.68678 430.03833 35.149158
191.40628 429.41339 35.235367
192.14969 428.827 35.323154
192.9144 428.28107 35.412212
193.69763 427.77725 35.502224
194.49648 427.31723 35.592861
195.30775 426.9024 35.683769
196.12807 426.53415 35.774578
196.95363 426.21362 35.86488
197.78012 425.94193 35.954216
198.60229 425.72 36.042034
199.41321 425.54865 36.127617
200.20177 425.4288 36.209824
200.93976 425.36182 36.285774
201.61676 425.34821 36.354408
202.39177 425.38174 36.431915
203.20282 425.46463 36.511986
204.03392 425.59714 36.593002
204.87654 425.77908 36.67411
205.72472 426.01007 36.754711
206.57365 426.28943 36.834335
207.41925 426.61633 36.91259
208.25784 426.98987 36.989128
209.08604 427.40884 37.063625
209.9007 427.87201 37.135799
210.69885 428.37787 37.205376
211.47766 428.9249 37.272106
212.23444 429.51132 37.335758
212.96663 430.13528 37.396111
213.67181 430.79477 37.452965
214.34766 431.48764 37.506134
214.99194 432.21161 37.555439
215.60263 432.96426 37.600731
216.17773 433.74307 37.641861
216.71544 434.54526 37.678707
217.214 435.36801 37.711159
217.67186 436.20831 37.739117
218.08754 437.06287 37.762508
218.45973 437.92822 37.781277
218.7872 438.80057 37.79538
219.06889 439.67557 37.804798
219.30382 440.54813 37.809555
219.4911 441.4119 37.809689
219.6299 442.25748 37.805325
219.71913 443.06659 37.796753
220.12321 443.52142 37.271763
220.12973 444.28177 37.255898
220.09067 445.12689 37.233589
220.00409 446.0047 37.205776
219.86983 446.90106 37.172741
219.68805 447.80774 37.134693
219.45921 448.71869 37.091797
219.18391 449.62903 37.044224
218.86298 450.53445 36.992153
218.49733 451.43115 36.935757
218.08812 452.31552 36.875233
217.63658 453.18423 36.810772
217.14413 454.03418 36.742592
216.61232 454.86234 36.670914
216.04282 455.66589 36.595963
215.43745 456.44211 36.517986
214.79817 457.18845 36.437237
214.12708 457.90244 36.353977
213.42638 458.58173 36.268482
212.69841 459.22421 36.181038
211.94568 459.82776 36.091938
211.17081 460.39047 36.001488
210.3766 460.91058 35.910015
209.56599 461.38638 35.817848
208.74216 461.81644 35.725342
207.90852 462.19931 35.63287
207.06888 462.53378 35.54084
206.22749 462.81873 35.449715
205.38951 463.05322 35.360031
204.56161 463.23633 35.272476
203.75403 463.36719 35.18811
202.98965 463.44458 35.109268
202.30774 463.46689 35.039948
201.52831 463.4411 34.961826
200.70749 463.36523 34.880619
199.8643 463.23886 34.798248
199.00818 463.0621 34.715668
198.14549 462.83536 34.633507
197.28127 462.55927 34.552269
196.41977 462.23459 34.472359
195.5648 461.8623 34.394142
194.71985 461.44357 34.317947
193.88815 460.97964 34.244072
193.07275 460.47195 34.172794
192.27658 459.92212 34.10437
191.50237 459.33188 34.039043
190.75276 458.70309 33.977036
190.03023 458.03778 33.918556
189.33717 457.33813 33.8638
188.67586 456.60641 33.812943
188.04842 455.84509 33.766148
187.45685 455.05673 33.723564
186.90305 454.24405 33.685318
186.38879 453.40997 33.651531
185.91571 452.5575 33.622299
185.48531 451.68991 33.597706
185.09895 450.81073 33.577808
184.75792 449.92377 33.562656
184.46332 449.03333 33.552265
184.21614 448.14438 33.546631
184.0173 447.26318 33.545708
183.86768 446.39856 33.549393
183.76826 445.5665 33.557438
183.72197 444.83334 33.568695
183.72258 444.04529 33.585884
183.76959 443.19312 33.609146
183.8642 442.31146 33.637852
184.00647 441.41287 33.671741
184.19618 440.5051 33.710621
184.43289 439.5939 33.754314
184.71593 438.68411 33.802654
185.04445 437.77991 33.855465
185.4175 436.88504 33.912567
185.83392 436.00308 33.97377
186.29243 435.1373 34.038868
186.79163 434.2908 34.107655
187.3299 433.46658 34.179901
187.90556 432.66745 34.255375
188.51677 431.89609 34.333836
189.16154 431.15503 34.415028
189.83777 430.44672 34.498684
190.54323 429.77344 34.584526
191.27553 429.13739 34.672268
192.03217 428.54056 34.76162
192.81049 427.98489 34.852261
193.60768 427.47214 34.943878
194.42075 427.00391 35.036125
195.24648 426.5817 35.128654
196.08139 426.20688 35.221081
196.92165 425.88068 35.312988
197.76285 425.60413 35.403915
198.59966 425.37823 35.493298
199.42502 425.20386 35.580402
200.22762 425.08188 35.66407
200.97874 425.0137 35.741375
201.66779 424.99985 35.811234
202.4566 425.03397 35.890121
203.28209 425.11832 35.971615
204.12799 425.2532 36.054077
204.98561 425.43839 36.136623
205.84888 425.67346 36.218662
206.71294 425.95779 36.299706
207.57358 426.29056 36.379353
208.42711 426.67072 36.457253
209.27005 427.09717 36.533077
210.09921 427.56857 36.606533
210.91158 428.08344 36.677349
211.70424 428.6402 36.74527
212.4745 429.23706 36.810051
213.21973 429.87213 36.871479
213.93747 430.54337 36.929348
214.62534 431.24857 36.983459
215.28111 431.98544 37.033646
215.90266 432.7515 37.079742
216.48801 433.54413 37.121609
217.03528 434.36063 37.159111
217.54271 435.19803 37.192139
218.00873 436.05328 37.220592
218.43181 436.92307 37.244404
218.81062 437.80383 37.263504
219.14394 438.69168 37.277855
219.43063 439.58224 37.287445
219.66974 440.47037 37.292282
219.86037 441.34952 37.292423
220.00163 442.21014 37.287983
220.09245 443.03366 37.279255
220.4727 443.49725 36.711643
220.47932 444.26974 36.695526
220.43962 445.12833 36.672859
220.35167 446.02011 36.644604
220.21527 446.93076 36.611046
220.03059 447.85187 36.572388
219.79811 448.77734 36.528809
219.51843 449.70218 36.48048
219.19237 450.62204 36.427578
218.82091 451.53302 36.370285
218.40518 452.43149 36.308796
217.94644 453.31406 36.243309
217.44615 454.17755 36.174042
216.90585 455.01889 36.101219
216.32729 455.83524 36.025074
215.71227 456.62384 35.945858
215.06281 457.38205 35.863819
214.38103 458.10739 35.779236
213.66916 458.79755 35.692379
212.9296 459.45026 35.603539
212.16487 460.06342 35.51302
211.37766 460.6351 35.421131
210.57079 461.16348 35.328197
209.74725 461.64688 35.234562
208.91029 462.08377 35.140583
208.06339 462.47275 35.046638
207.21036 462.81256 34.953144
206.35558 463.10205 34.860565
205.50424 463.34027 34.769451
204.66315 463.52628 34.680504
203.8427 463.65924 34.594795
203.06615 463.73788 34.514694
202.37337 463.76053 34.444271
201.58151 463.73434 34.364902
200.7476 463.65726 34.282398
199.89099 463.52887 34.198719
199.02122 463.3493 34.114819
198.14479 463.11896 34.031353
197.2668 462.83844 33.948818
196.39159 462.50861 33.867638
195.52299 462.1304 33.788174
194.66458 461.70499 33.710766
193.81963 461.23364 33.635712
192.99124 460.71786 33.563301
192.18239 460.15927 33.493786
191.39584 459.55963 33.427418
190.63428 458.92084 33.364422
189.90024 458.24493 33.305012
189.19615 457.53412 33.249382
188.52429 456.79077 33.197716
187.88684 456.0173 33.150173
187.28584 455.21637 33.106911
186.72324 454.39075 33.068058
186.20078 453.54337 33.03373
185.72015 452.67731 33.004032
185.2829 451.7959 32.979046
184.8904 450.90271 32.958836
184.54393 450.00165 32.943439
184.24461 449.09698 32.932884
183.9935 448.19388 32.927158
183.7915 447.29865 32.92622
183.6395 446.42023 32.929966
183.5385 445.57492 32.938137
183.49147 444.83011 32.949577
183.49208 444.02948 32.967037
183.53986 443.16376 32.990669
183.63596 442.26804 33.019836
183.7805 441.35513 33.054264
183.97324 440.43289 33.093761
184.21371 439.5072 33.138149
184.50125 438.58289 33.18726
184.83502 437.66428 33.240913
185.214 436.75516 33.298927
185.63707 435.85913 33.361103
186.10289 434.97955 33.427238
186.61003 434.1196 33.49712
187.15688 433.28223 33.570518
187.74171 432.47037 33.647198
188.36266 431.68671 33.72691
189.0177 430.93384 33.809391
189.70471 430.21423 33.894379
190.42142 429.53024 33.98159
191.16539 428.88406 34.070732
191.93408 428.27774 34.161503
192.72479 427.7132 34.253593
193.53468 427.19226 34.346668
194.3607 426.71658 34.440388
195.19958 426.28766 34.534389
196.04781 425.90686 34.628288
196.90146 425.57544 34.721661
197.75606 425.29449 34.814034
198.6062 425.065 34.904842
199.4447 424.88785 34.993336
200.2601 424.76392 35.078339
201.02319 424.69464 35.156876
201.72322 424.6806 35.227844
202.5246 424.71527 35.307987
203.36324 424.80096 35.390781
204.22261 424.93796 35.474556
205.0939 425.12613 35.558418
205.97093 425.36496 35.641762
206.84874 425.65381 35.724098
207.72311 425.99185 35.805016
208.59023 426.37808 35.884155
209.44661 426.81134 35.961189
210.28899 427.29022 36.035816
211.11429 427.81332 36.107758
211.91959 428.37894 36.176762
212.70212 428.98532 36.242577
213.45923 429.63052 36.304985
214.18839 430.31244 36.363773
214.88722 431.02887 36.418747
215.55344 431.7775 36.469734
216.18489 432.55576 36.516563
216.77957 433.36102 36.559097
217.33556 434.19052 36.597195
217.85109 435.04126 36.630749
218.32452 435.91013 36.65966
218.75435 436.79376 36.683849
219.13919 437.68857 36.703251
219.47781 438.59058 36.717834
219.76907 439.49533 36.727577
220.01199 440.39761 36.732491
220.20566 441.29074 36.732632
220.34917 442.1651 36.728119
220.44144 443.00174 36.719254
220.79868 443.47327 36.105564
220.80539 444.25671 36.089222
220.76514 445.12747 36.066235
220.67593 446.03189 36.037579
220.5376 446.95544 36.003544
220.35031 447.88962 35.96434
220.11453 448.82822 35.920143
219.83089 449.76614 35.871128
219.5002 450.69907 35.817474
219.12347 451.62296 35.759369
218.70184 452.53415 35.697006
218.23662 453.42923 35.630592
217.72922 454.30496 35.560345
217.18127 455.15823 35.486488
216.5945 455.98615 35.409267
215.97076 456.78592 35.328926
215.3121 457.5549 35.245724
214.62064 458.29053 35.159939
213.89868 458.99045 35.071854
213.14864 459.6524 34.981754
212.37308 460.27426 34.88995
211.57471 460.85406 34.796761
210.75639 461.38992 34.702511
209.92119 461.88019 34.607548
209.07237 462.32327 34.512234
208.21344 462.71777 34.416958
207.34833 463.06238 34.32214
206.48141 463.35599 34.228249
205.61801 463.59756 34.135841
204.765 463.78622 34.045631
203.93292 463.92105 33.95871
203.14536 464.00082 33.877472
202.44276 464.0238 33.806049
201.63968 463.99725 33.725559
200.79396 463.91907 33.641888
199.9252 463.78885 33.557018
199.04309 463.60675 33.471931
198.15424 463.37311 33.38728
197.26381 463.08865 33.303577
196.37617 462.75412 33.221241
195.49527 462.37054 33.140656
194.62468 461.93909 33.062149
193.76776 461.46109 32.986031
192.92763 460.93802 32.91259
192.1073 460.37149 32.842091
191.3096 459.76334 32.774784
190.53725 459.11548 32.710896
189.7928 458.42999 32.650642
189.07874 457.70911 32.594223
188.39735 456.9552 32.541824
187.75087 456.17081 32.49361
187.14136 455.35852 32.44973
186.57076 454.52118 32.410328
186.04089 453.66177 32.375515
185.55347 452.78345 32.345398
185.11 451.88956 32.320057
184.71194 450.9837 32.299557
184.36057 450.06985 32.283943
184.05701 449.15237 32.273239
183.80234 448.23648 32.267433
183.59747 447.32855 32.266483
183.4433 446.43768 32.270279
183.34088 445.58038 32.278568
183.29318 444.82501 32.290169
183.29381 444.01303 32.307873
183.34225 443.13501 32.331844
183.43971 442.22662 32.361423
183.5863 441.30075 32.396339
183.78178 440.36545 32.436394
184.02567 439.42664 32.481415
184.31728 438.48923 32.531223
184.65578 437.55759 32.585636
185.04015 436.63559 32.64447
185.46919 435.72687 32.707527
185.94162 434.83481 32.774601
186.45595 433.96265 32.845474
187.01056 433.11343 32.91991
187.60368 432.29004 32.997677
188.23343 431.49527 33.078518
188.89777 430.73175 33.16217
189.59451 430.00195 33.248363
190.32137 429.30826 33.336811
191.07588 428.65289 33.427219
191.85548 428.03796 33.519276
192.65741 427.46545 33.612671
193.47878 426.9371 33.707062
194.3165 426.45468 33.802113
195.16728 426.01968 33.897446
196.02753 425.63348 33.992676
196.89328 425.29739 34.087376
197.75999 425.01245 34.181057
198.62219 424.77969 34.273151
199.47258 424.60004 34.3629
200.29953 424.47437 34.449108
201.07346 424.40411 34.528755
201.78339 424.38983 34.600731
202.59613 424.42499 34.682011
203.44666 424.5119 34.76598
204.31822 424.65088 34.850941
205.20187 424.84167 34.935997
206.09132 425.08389 35.020519
206.98158 425.37686 35.104023
207.86835 425.7197 35.186085
208.74776 426.11139 35.266346
209.61627 426.55078 35.344471
210.4706 427.03647 35.420158
211.30759 427.56699 35.493122
212.12431 428.14062 35.563103
212.91794 428.75558 35.629852
213.68578 429.40994 35.693142
214.42528 430.10153 35.752766
215.13402 430.82812 35.808521
215.80968 431.58734 35.860226
216.45009 432.37665 35.907722
217.05319 433.19333 35.950855
217.61707 434.03458 35.989498
218.13989 434.8974 36.023525
218.62004 435.77856 36.052849
219.05597 436.67474 36.077377
219.44626 437.58221 36.097057
219.78969 438.49701 36.111847
220.08508 439.41461 36.121727
220.33145 440.32968 36.126713
220.52785 441.23547 36.126854
220.6734 442.12222 36.122276
220.76697 442.97073 36.113285
221.10204 443.44931 35.44899
221.10884 444.24255 35.432442
221.06808 445.12421 35.409168
220.97777 446.03995 35.38015
220.83769 446.97507 35.345692
220.64806 447.92093 35.305996
220.40933 448.87128 35.261246
220.12213 449.82095 35.211617
219.78731 450.76553 35.157295
219.40587 451.70099 35.098461
218.97896 452.6236 35.03532
218.5079 453.52988 34.968075
217.99417 454.41656 34.896946
217.43936 455.28052 34.822166
216.84525 456.1188 34.743977
216.2137 456.92859 34.662628
215.5468 457.70718 34.578388
214.84668 458.45203 34.491531
214.11569 459.16071 34.40234
213.35626 459.83093 34.311115
212.57098 460.46057 34.218163
211.76262 461.04764 34.123806
210.93407 461.59021 34.028374
210.08841 462.08661 33.932224
209.22897 462.53522 33.835716
208.3593 462.93466 33.739246
207.48335 463.28357 33.643242
206.60559 463.58087 33.548176
205.73138 463.82547 33.454613
204.86769 464.01648 33.363277
204.02521 464.15302 33.275265
203.22778 464.23376 33.193012
202.51639 464.25705 33.120697
201.70326 464.23013 33.039196
200.84695 464.151 32.954475
199.96732 464.01917 32.868546
199.07417 463.83475 32.782394
198.17419 463.59821 32.696686
197.27261 463.31018 32.611931
196.37389 462.97147 32.528568
195.48195 462.5831 32.446972
194.60046 462.14624 32.367481
193.73282 461.66226 32.290413
192.88217 461.13263 32.216053
192.05157 460.55902 32.144672
191.2439 459.94327 32.076523
190.46188 459.28729 32.011833
189.70811 458.59323 31.950827
188.98511 457.86331 31.893702
188.2952 457.09998 31.840647
187.64062 456.30576 31.791828
187.02348 455.48331 31.747402
186.44574 454.6355 31.707504
185.90926 453.76535 31.672256
185.41573 452.87601 31.641762
184.96671 451.97095 31.616102
184.56366 451.05374 31.595348
184.20789 450.12845 31.57954
183.90054 449.19949 31.568701
183.64267 448.27213 31.562822
183.43524 447.35284 31.561859
183.27914 446.45081 31.565702
183.17545 445.58279 31.574095
183.12715 444.81796 31.58584
183.12778 443.99582 31.603769
183.17683 443.10681 31.628038
183.27551 442.18704 31.657988
183.42393 441.2496 31.69334
183.62187 440.30258 31.733898
183.8688 439.35202 31.779482
184.16406 438.40289 31.829912
184.50681 437.45959 31.885008
184.89597 436.52603 31.944578
185.3304 435.60596 32.008427
185.80873 434.70273 32.07634
186.3295 433.81964 32.148098
186.89105 432.95981 32.223469
187.49159 432.12613 32.302208
188.12923 431.32141 32.38406
188.80188 430.54831 32.468758
189.50734 429.80939 32.55603
190.2433 429.10699 32.645584
191.00726 428.44345 32.737122
191.7966 427.82083 32.830334
192.60857 427.24112 32.924896
193.44022 426.70621 33.02047
194.28844 426.21774 33.116707
195.14986 425.77728 33.213238
196.02087 425.38626 33.309658
196.89746 425.04593 33.40554
197.77502 424.75745 33.500397
198.64801 424.52179 33.593643
199.50905 424.33987 33.684513
200.34634 424.21262 33.771801
201.12994 424.14148 33.852448
201.84877 424.12704 33.925323
202.67169 424.16263 34.007622
203.53285 424.25064 34.09264
204.41533 424.39133 34.178665
205.31003 424.58453 34.264782
206.21062 424.82977 34.350365
207.11201 425.1264 34.43491
208.00989 425.47354 34.518002
208.9003 425.87015 34.59927
209.77968 426.31503 34.678371
210.6447 426.80679 34.755005
211.49217 427.34393 34.828884
212.31911 427.92477 34.899738
213.12267 428.54742 34.967323
213.90012 429.20996 35.031406
214.64888 429.91022 35.091774
215.36649 430.6459 35.148228
216.0506 431.41461 35.200581
216.69904 432.21381 35.248672
217.30968 433.04071 35.292347
217.8806 433.89249 35.33147
218.40999 434.76608 35.365925
218.89613 435.65833 35.395611
219.33751 436.5657 35.420448
219.7327 437.48453 35.440376
220.08041 438.41077 35.455349
220.37952 439.33984 35.465351
220.62897 440.26636 35.470402
220.82782 441.1835 35.470547
220.97519 442.08133 35.465912
221.06995 442.94046 35.456806
221.38376 443.42523 34.735832
221.39064 444.22714 34.719101
221.34943 445.11844 34.695572
221.25812 446.04419 34.666241
221.11652 446.98953 34.631401
220.92482 447.94574 34.591274
220.68347 448.90649 34.546032
220.39314 449.86655 34.495861
220.05466 450.82147 34.440945
219.66904 451.76712 34.38147
219.23747 452.69983 34.317635
218.76126 453.61603 34.249657
218.24191 454.51239 34.17775
217.68103 455.3858 34.102154
217.08041 456.23328 34.023109
216.44197 457.05191 33.940872
215.76778 457.83899 33.855709
215.06 458.59198 33.767902
214.32101 459.30841 33.677734
213.55328 459.98599 33.585514
212.75943 460.62253 33.491543
211.94221 461.21597 33.396156
211.10461 461.7645 33.299683
210.24971 462.26633 33.20248
209.38086 462.71985 33.104916
208.50168 463.12363 33.007393
207.61615 463.47638 32.910339
206.72881 463.77692 32.814232
205.84503 464.0242 32.719646
204.97189 464.21732 32.627312
204.12019 464.35532 32.538334
203.31406 464.43698 32.455185
202.59488 464.46048 32.382076
201.77287 464.43329 32.299686
200.9072 464.35327 32.214039
200.01794 464.22 32.127171
199.11504 464.0336 32.040077
198.20522 463.79446 31.95343
197.29378 463.50327 31.867752
196.38521 463.16086 31.783476
195.48354 462.76825 31.700987
194.59241 462.3266 31.620628
193.71527 461.83734 31.542717
192.85533 461.30191 31.467545
192.01566 460.72205 31.395382
191.19914 460.09955 31.326487
190.40857 459.4364 31.261091
189.64656 458.73474 31.199417
188.91565 457.99686 31.141666
188.21819 457.22519 31.088032
187.55646 456.42224 31.038679
186.93257 455.59082 30.993767
186.34851 454.73373 30.953434
185.80617 453.85406 30.917801
185.30724 452.95502 30.886972
184.85332 452.04004 30.861032
184.44586 451.11282 30.84005
184.08618 450.1774 30.82407
183.77548 449.23831 30.813112
183.5148 448.30078 30.807169
183.3051 447.37146 30.806196
183.14729 446.45956 30.810081
