# .PCD v0.7 - Point Cloud Data file format
VERSION 0.7
FIELDS x y z
SIZE 4 4 4
TYPE F F F
COUNT 1 1 1
WIDTH 1616
HEIGHT 1
VIEWPOINT 0 0 0 1 0 0 0
POINTS 1616
DATA ascii
157.8463 68.8004 46.93729
157.8463 68.8004 46.93729
157.8463 68.8004 46.93729
157.8463 68.8004 46.93729
157.8463 68.8004 46.93729
157.8463 68.8004 46.93729
157.8463 68.8004 46.93729
157.8463 68.8004 46.93729
157.8463 68.8004 46.93729
157.8463 68.8004 46.93729
157.8463 68.8004 46.93729
157.8463 68.8004 46.93729
157.8463 68.8004 46.93729
157.8463 68.8004 46.93729
157.8463 68.8004 46.93729
157.8463 68.8004 46.93729
157.8463 68.8004 46.93729
157.8463 68.8004 46.93729
157.8463 68.8004 46.93729
157.8463 68.8004 46.93729
157.8463 68.8004 46.93729
157.8463 68.8004 46.93729
157.8463 68.8004 46.93729
157.8463 68.8004 46.93729
157.8463 68.8004 46.93729
157.8463 68.8004 46.93729
157.8463 68.8004 46.93729
157.8463 68.8004 46.93729
157.8463 68.8004 46.93729
157.8463 68.8004 46.93729
157.8463 68.8004 46.93729
157.26784 77.281166 55.428818
157.27242 77.212379 55.461548
157.28362 77.043663 55.522274
157.3004 76.789986 55.596809
157.32228 76.459076 55.678814
157.34883 76.05703 55.764118
157.37968 75.589462 55.849598
157.41446 75.061829 55.93277
157.45282 74.479675 56.011593
157.49437 73.848671 56.084362
157.53873 73.17466 56.149639
157.58548 72.463684 56.20623
157.63425 71.721924 56.253155
157.68459 70.95575 56.289639
157.73608 70.171638 56.315086
157.78831 69.376152 56.329105
157.84082 68.575943 56.331474
157.89317 67.777664 56.322159
157.94495 66.987961 56.301296
157.9957 66.213455 56.269218
158.04501 65.460655 56.226433
158.09245 64.735977 56.173637
158.13762 64.045692 56.111729
158.18011 63.395905 56.041813
158.21956 62.792538 55.965221
158.25555 62.241344 55.883541
158.28777 61.747913 55.798668
158.31581 61.31773 55.712887
158.33936 60.956326 55.629021
158.35802 60.669521 55.550724
158.37137 60.464153 55.483215
158.37872 60.350498 55.435692
158.38054 60.321888 55.400963
158.38368 60.269917 55.27058
158.38783 60.200008 55.050564
158.39246 60.120281 54.750229
158.39726 60.035603 54.376163
158.40204 59.949455 53.934116
158.4066 59.864555 53.429607
158.41083 59.783115 52.868137
158.4146 59.706978 52.255333
158.41782 59.637688 51.596989
158.42044 59.576546 50.899067
158.42238 59.52462 50.167713
158.42361 59.48278 49.409233
158.4241 59.451702 48.630077
158.42381 59.431866 47.836796
158.42276 59.423573 47.036015
158.42093 59.426952 46.234409
158.41837 59.441936 45.438652
158.41507 59.468288 44.655384
158.41109 59.505585 43.891186
158.40649 59.553219 43.152523
158.40132 59.610382 42.445747
158.39568 59.676071 41.777042
158.38965 59.749069 41.15242
158.38332 59.8279 40.577717
158.37685 59.91082 40.058586
158.37036 59.995731 39.600567
158.36404 60.080074 39.209152
158.35812 60.160603 38.889996
158.35289 60.23291 38.649384
158.34883 60.290062 38.495594
158.34694 60.317471 38.444008
158.34109 60.405315 38.404343
158.32892 60.589008 38.340679
158.31123 60.856144 38.264526
158.28854 61.199421 38.181709
158.26125 61.612865 38.09618
158.22971 62.090919 38.010929
158.19431 62.628109 37.928356
158.15538 63.21888 37.850437
158.11333 63.857529 37.778835
158.06854 64.538177 37.714943
158.02142 65.254776 37.659916
157.97237 66.001083 37.614697
157.9218 66.770729 37.580032
157.87015 67.55722 37.55648
157.81784 68.353958 37.544411
157.76532 69.154312 37.54401
157.71304 69.951614 37.555283
157.66141 70.73922 37.57806
157.61087 71.510536 37.611977
157.56184 72.259048 37.656502
157.51476 72.978378 37.710896
157.47 73.66227 37.774235
157.42799 74.304665 37.845371
157.38911 74.899658 37.922939
157.35373 75.441528 38.005299
157.32219 75.924706 38.090496
157.29488 76.343712 38.17617
157.27213 76.693001 38.259388
157.25432 76.966629 38.336292
157.24193 77.157471 38.401276
157.23569 77.253899 38.443699
157.23402 77.280731 38.488811
157.23065 77.336586 38.635197
157.22639 77.408577 38.869251
157.22171 77.489426 39.182411
157.21689 77.57457 39.568298
157.21214 77.660683 40.021229
157.20764 77.745148 40.535706
157.20348 77.825813 41.106205
157.1998 77.900902 41.727074
157.19667 77.968903 42.392498
157.19415 78.028564 43.096474
157.19234 78.07885 43.832836
157.19122 78.118927 44.595245
157.19087 78.14814 45.377235
157.19128 78.166054 46.172245
157.19247 78.172386 46.973629
157.19441 78.167046 47.774719
157.19711 78.150131 48.56884
157.20053 78.121902 49.349358
157.20461 78.082817 50.109715
157.20932 78.033524 50.843452
157.21457 77.974846 51.544254
157.22028 77.907837 52.205963
157.22638 77.833755 52.822594
157.23273 77.754105 53.388348
157.23923 77.670692 53.897583
157.2457 77.585678 54.344791
157.25197 77.501732 54.724461
157.25778 77.422226 55.03088
157.26286 77.351875 55.257561
157.26665 77.298363 55.395576
156.88954 81.389259 59.54874
156.89635 81.287109 59.597351
156.91296 81.036537 59.687534
156.9379 80.659782 59.798233
156.9704 80.168327 59.920025
157.00983 79.571236 60.046711
157.05563 78.876816 60.173664
157.1073 78.093201 60.297188
157.16426 77.228607 60.414253
157.22597 76.291466 60.522324
157.29184 75.290459 60.61927
157.3613 74.234543 60.70332
157.43372 73.132919 60.77301
157.50848 71.995026 60.82719
157.58496 70.830498 60.86499
157.66252 69.649078 60.885807
157.74051 68.46064 60.889328
157.81827 67.275063 60.875488
157.89516 66.102234 60.844509
157.97054 64.951965 60.796867
158.04376 63.833942 60.733322
158.11423 62.757687 60.654915
158.1813 61.732506 60.562969
158.24442 60.767467 60.459133
158.30298 59.871376 60.345383
158.35646 59.052765 60.224075
158.40428 58.319939 60.098026
158.44595 57.681053 59.970627
158.48091 57.144306 59.846069
158.50864 56.718357 59.72979
158.52844 56.413353 59.629524
158.53938 56.24456 59.558949
158.54207 56.202065 59.507374
158.54674 56.124886 59.313728
158.5529 56.021057 58.986973
158.55978 55.902653 58.540928
158.56693 55.77689 57.985378
158.57401 55.648945 57.328876
158.58078 55.522858 56.579594
158.58705 55.401905 55.745724
158.59265 55.28883 54.835617
158.59744 55.185925 53.857868
158.60133 55.095119 52.821346
158.60422 55.018002 51.735168
158.60605 54.955864 50.608711
158.60677 54.909702 49.451542
158.60634 54.880241 48.273392
158.60478 54.867931 47.084106
158.60207 54.872948 45.893597
158.59825 54.895203 44.711773
158.59335 54.934338 43.548496
158.58745 54.989731 42.41354
158.58061 55.060471 41.316513
158.57295 55.14537 40.266838
158.56456 55.242931 39.273708
158.5556 55.351341 38.346046
158.5462 55.468418 37.492519
158.53659 55.591568 36.721531
158.52695 55.717674 36.041298
158.51758 55.842937 35.459984
158.50877 55.962536 34.985985
158.50102 56.06992 34.628643
158.495 56.1548 34.400242
158.49217 56.195507 34.323627
158.48349 56.32597 34.264717
158.46541 56.598782 34.170166
158.43915 56.995522 34.057068
158.40546 57.505344 33.934074
158.36491 58.119373 33.807049
158.31807 58.829357 33.680439
158.26547 59.627171 33.5578
158.20767 60.504555 33.442081
158.14523 61.453053 33.335743
158.07872 62.463924 33.240849
158.00873 63.528179 33.159122
157.93587 64.636566 33.091969
157.86076 65.77961 33.040489
157.78406 66.94767 33.005512
157.70638 68.130959 32.987583
157.62839 69.319611 32.986988
157.55074 70.503731 33.003731
157.47404 71.673447 33.037556
157.39899 72.81897 33.087933
157.32619 73.930626 33.154057
157.25624 74.99894 33.23484
157.18979 76.014641 33.328907
157.12741 76.968689 33.434559
157.06966 77.852348 33.549755
157.01711 78.657104 33.672073
156.97026 79.374702 33.798603
156.92969 79.996994 33.925846
156.8959 80.515739 34.049435
156.86946 80.922127 34.163651
156.85106 81.205551 34.260162
156.8418 81.34877 34.323166
156.83931 81.388618 34.390167
156.8343 81.471565 34.607571
156.82799 81.578491 34.955177
156.82103 81.698563 35.420269
156.81387 81.82502 35.993374
156.80684 81.952911 36.666046
156.80013 82.078346 37.430126
156.79396 82.198151 38.277405
156.78848 82.309669 39.199493
156.78384 82.41066 40.187752
156.78011 82.499268 41.233273
156.77739 82.573952 42.326881
156.77576 82.633461 43.459179
156.77522 82.676857 44.62056
156.77585 82.703461 45.801273
156.7776 82.71286 46.991455
156.7805 82.704933 48.181198
156.7845 82.67981 49.360592
156.78958 82.637886 50.519787
156.79564 82.579842 51.649033
156.80263 82.50663 52.73875
156.81042 82.419495 53.779552
156.81891 82.319969 54.762295
156.82796 82.209938 55.678089
156.8374 82.091644 56.518318
156.84705 81.967766 57.274616
156.85666 81.841515 57.938789
156.86595 81.716835 58.502659
156.87462 81.598763 58.957737
156.88214 81.494286 59.294395
156.88777 81.414803 59.499371
156.48746 84.643997 62.819744
156.49602 84.515358 62.880962
156.51695 84.199799 62.994537
156.54836 83.725334 63.133945
156.58928 83.106422 63.287323
156.63893 82.354477 63.446865
156.69662 81.479965 63.606739
156.76169 80.493126 63.762299
156.83342 79.404305 63.909729
156.91113 78.224121 64.045822
156.99408 76.963509 64.167915
157.08154 75.633743 64.273758
157.17274 74.246429 64.361526
157.26691 72.813431 64.429756
157.36324 71.346886 64.477356
157.46091 69.859077 64.503578
157.55911 68.362419 64.508011
157.65704 66.869377 64.490578
157.75388 65.39238 64.451561
157.8488 63.943798 64.391563
157.94101 62.53582 64.311546
158.02975 61.180443 64.212799
158.11423 59.889389 64.097015
158.19371 58.674076 63.966248
158.26747 57.545586 63.822994
158.33479 56.514675 63.670227
158.39503 55.591793 63.511486
158.44751 54.78722 63.351048
158.49155 54.111271 63.194187
158.52644 53.574852 63.047752
158.55139 53.19075 62.921486
158.56517 52.97818 62.832603
158.56854 52.924664 62.767651
158.57443 52.827469 62.523788
158.5822 52.696712 62.112289
158.59085 52.5476 61.550564
158.59985 52.389221 60.850941
158.60876 52.228096 60.024174
158.61729 52.069309 59.080574
158.6252 51.916988 58.030445
158.63225 51.77459 56.884308
158.63829 51.644997 55.652985
158.64319 51.530636 54.347645
158.64682 51.433521 52.979778
158.64912 51.355267 51.56118
158.65002 51.297138 50.103905
158.64949 51.260036 48.620209
158.64752 51.24453 47.12249
158.6441 51.250847 45.62323
158.6393 51.278873 44.134907
158.63313 51.328159 42.669945
158.6257 51.397919 41.240639
158.6171 51.487003 39.859108
158.60744 51.593922 38.537209
158.59688 51.716785 37.286514
158.58559 51.85331 36.118267
158.57376 52.000751 35.043385
158.56165 52.155838 34.072445
158.54951 52.314651 33.215801
158.5377 52.472397 32.483727
158.52663 52.623013 31.886797
158.51686 52.758251 31.436781
158.50926 52.865139 31.149143
158.50571 52.916409 31.052662
158.49478 53.0807 30.978472
158.472 53.424267 30.859402
158.43893 53.923901 30.71697
158.3965 54.565941 30.562078
158.34544 55.339214 30.402111
158.28647 56.23333 30.242664
158.22023 57.238049 30.088223
158.14745 58.342979 29.942492
158.0688 59.53746 29.808575
157.98503 60.810497 29.689074
157.8969 62.150761 29.586151
157.80513 63.546597 29.501577
157.71056 64.986084 29.436749
157.61395 66.457069 29.392698
157.51613 67.947243 29.370125
157.41792 69.44416 29.369373
157.32011 70.935371 29.390459
157.22354 72.408447 29.433054
157.12903 73.851059 29.496494
157.03734 75.251022 29.579767
156.94926 76.596397 29.681503
156.86557 77.875504 29.799965
156.787 79.076981 29.933018
156.71428 80.189812 30.078093
156.64809 81.203278 30.23213
156.58911 82.106979 30.391478
156.53801 82.890656 30.551716
156.49547 83.543938 30.707357
156.46217 84.055725 30.851198
156.439 84.412651 30.972734
156.42732 84.593002 31.052078
156.42419 84.643188 31.136459
156.41789 84.74765 31.410246
156.40993 84.882309 31.848001
156.40118 85.033524 32.433708
156.39217 85.192764 33.155445
156.3833 85.353828 34.002575
156.37485 85.511795 34.964809
156.36708 85.662674 36.031826
156.3602 85.803108 37.193054
156.35434 85.930298 38.437611
156.34964 86.041885 39.754276
156.34622 86.135933 41.131508
156.34416 86.210884 42.557461
156.34349 86.265526 44.020039
156.34427 86.299026 45.506962
156.34648 86.310875 47.005814
156.35013 86.300888 48.504108
156.35518 86.269249 49.989368
156.36156 86.216454 51.449192
156.3692 86.143356 52.871304
156.37799 86.051155 54.243633
156.3878 85.941414 55.554359
156.3985 85.816086 56.791965
156.4099 85.677513 57.945267
156.42178 85.528542 59.003407
156.43393 85.372536 59.955845
156.44603 85.213539 60.792263
156.45775 85.056526 61.502373
156.46866 84.907837 62.075474
156.47813 84.77626 62.499443
156.48521 84.676163 62.757576
156.0369 87.43103 65.627861
156.04698 87.27964 65.699905
156.07161 86.908295 65.833557
156.10857 86.34996 65.997612
156.15672 85.621635 66.178101
156.21515 84.736763 66.365845
156.28305 83.707657 66.553986
156.35962 82.546364 66.737045
156.44403 81.26506 66.91053
156.53548 79.876244 67.070694
156.6331 78.392784 67.214363
156.73602 76.827942 67.338921
156.84334 75.195374 67.4422
156.95415 73.509056 67.522491
157.06749 71.783249 67.578506
157.18243 70.032425 67.60936
157.298 68.271194 67.614578
157.41324 66.514206 67.59407
157.52719 64.776115 67.548157
157.6389 63.071449 67.477554
157.74742 61.41457 67.383385
157.85184 59.819588 67.267181
157.95125 58.300301 67.130928
158.04478 56.870144 66.977043
158.13158 55.54216 66.808464
158.21082 54.329002 66.628693
158.28171 53.242977 66.441895
158.34344 52.296169 66.25309
158.39526 51.500725 66.068504
158.43634 50.86948 65.896179
158.4657 50.417477 65.747589
158.4819 50.167328 65.642998
158.48589 50.104351 65.566559
158.49281 49.989971 65.279587
158.50195 49.836102 64.795341
158.51215 49.660629 64.134315
158.52272 49.474255 63.311012
158.53322 49.284645 62.338093
158.54326 49.097786 61.22768
158.55255 48.918541 59.991913
158.56085 48.750965 58.643158
158.56796 48.598465 57.194164
158.57372 48.46389 55.658066
158.578 48.349606 54.048389
158.5807 48.257519 52.379009
158.58177 48.18911 50.664116
158.58115 48.145451 48.918133
158.57883 48.127205 47.155651
158.57481 48.13464 45.39135
158.56915 48.167618 43.639919
158.56189 48.22562 41.915981
158.55315 48.307709 40.234009
158.54301 48.412544 38.608246
158.53166 48.538361 37.052662
158.51923 48.682945 35.580868
158.50594 48.843605 34.206104
158.49203 49.017109 32.9412
158.47777 49.199615 31.79862
158.4635 49.386501 30.790539
158.4496 49.572132 29.929045
158.43655 49.749374 29.226593
158.42506 49.90852 28.697023
158.41614 50.034306 28.358538
158.41194 50.094635 28.244999
158.39908 50.287975 28.157694
158.37228 50.692272 28.017574
158.33336 51.280231 27.849964
158.28343 52.035774 27.66769
158.22334 52.945744 27.479445
158.15393 53.997921 27.291811
158.07599 55.180256 27.110067
157.99034 56.480515 26.938574
157.8978 57.886158 26.780983
157.79922 59.384243 26.640354
157.6955 60.961433 26.519239
157.58752 62.604027 26.419714
157.47623 64.297989 26.343424
157.36255 66.029022 26.291588
157.24744 67.782616 26.265022
157.13185 69.544167 26.264139
157.01675 71.298996 26.288952
156.90312 73.032478 26.339077
156.79189 74.73011 26.413733
156.68399 76.377556 26.511726
156.58034 77.96077 26.631449
156.48186 79.465996 26.770851
156.3894 80.879875 26.927423
156.30382 82.189423 27.098146
156.22594 83.382057 27.279413
156.15652 84.445518 27.46693
156.09641 85.367729 27.655497
156.04633 86.136497 27.838652
156.00714 86.738754 28.007921
155.97987 87.158783 28.150942
155.96614 87.371017 28.244312
155.96246 87.430069 28.343611
155.95503 87.553001 28.665796
155.94566 87.711464 29.180939
155.93536 87.889412 29.870188
155.92477 88.076805 30.719513
155.91432 88.266335 31.716396
155.90439 88.452232 32.84874
155.89525 88.629784 34.104382
155.88715 88.795044 35.47089
155.88025 88.944717 36.935459
155.87473 89.076027 38.484886
155.8707 89.186707 40.105583
155.86827 89.274902 41.783615
155.86749 89.339211 43.504749
155.86839 89.378632 45.254528
155.87102 89.39257 47.018345
155.87531 89.380821 48.781509
155.88124 89.343582 50.529335
155.88875 89.281456 52.247227
155.89774 89.195442 53.920738
155.90808 89.086937 55.535667
155.91963 88.957802 57.078102
155.93222 88.81031 58.534496
155.94563 88.647247 59.891678
155.95963 88.471947 61.136871
155.97391 88.288353 62.257683
155.98816 88.101257 63.241966
156.00195 87.916481 64.077606
156.01477 87.741508 64.752022
156.02594 87.58667 65.250938
156.03427 87.46888 65.554703
155.52797 89.902763 68.125671
155.5394 89.731148 68.207336
155.56732 89.310188 68.358841
155.60922 88.677254 68.544815
155.6638 87.851616 68.74942
155.73004 86.848511 68.962257
155.80701 85.681908 69.175529
155.8938 84.365448 69.383049
155.9895 82.912949 69.57972
156.09317 81.33857 69.761276
156.20383 79.656906 69.924141
156.3205 77.88298 70.065338
156.44217 76.032288 70.182419
156.56778 74.120659 70.273438
156.69627 72.164261 70.336937
156.82657 70.179512 70.371918
156.95758 68.182953 70.377831
157.08821 66.191216 70.354584
157.21739 64.220894 70.302528
157.34402 62.288464 70.222496
157.46704 60.41021 70.115746
157.58542 58.602119 69.984016
157.6981 56.879841 69.829559
157.80414 55.258598 69.655113
157.90253 53.753181 69.464012
157.99236 52.377934 69.260216
158.07271 51.146801 69.048462
158.1427 50.073486 68.834435
158.20145 49.171764 68.625175
158.24802 48.456177 68.429832
158.2813 47.943783 68.261391
158.29967 47.66021 68.142822
158.30417 47.588821 68.056175
158.31203 47.45916 67.730858
158.32237 47.284729 67.181915
158.33394 47.085812 66.432571
158.34593 46.874535 65.49926
158.35783 46.659592 64.396347
158.36922 46.447765 63.137573
158.37975 46.244572 61.736691
158.38916 46.054607 60.207729
158.39722 45.881729 58.565132
158.40375 45.729176 56.823795
158.4086 45.599621 54.999043
158.41167 45.495228 53.106617
158.41287 45.417683 51.162598
158.41216 45.368191 49.183331
158.40953 45.347504 47.18536
158.40498 45.35593 45.185329
158.39856 45.393318 43.19989
158.39034 45.459068 41.245613
158.38042 45.552124 39.338909
158.36894 45.670967 37.495926
158.35606 45.813595 35.732498
158.34196 45.977497 34.064056
158.3269 46.159622 32.505608
158.31114 46.356312 31.071699
158.29497 46.563198 29.776459
158.27879 46.775055 28.633684
158.26303 46.985493 27.657087
158.24826 47.186417 26.860779
158.23521 47.366821 26.260454
158.2251 47.509415 25.876741
158.22035 47.577805 25.748032
158.20578 47.796974 25.649063
158.17538 48.255295 25.490223
158.13127 48.92181 25.300219
158.07466 49.778301 25.09359
158.00656 50.809853 24.880192
157.92787 52.002617 24.667488
157.83952 53.342922 24.46146
157.74242 54.816914 24.267056
157.63751 56.410362 24.088408
157.52576 58.108608 23.928991
157.40817 59.89653 23.791693
157.28578 61.758595 23.678869
157.15961 63.678886 23.592386
157.03073 65.641205 23.533625
156.90024 67.629097 23.50351
156.76923 69.626007 23.502508
156.63875 71.615303 23.530636
156.50993 73.580406 23.58746
156.38383 75.504852 23.672091
156.26152 77.372421 23.783176
156.14403 79.167168 23.918894
156.03238 80.873512 24.076923
155.92758 82.476303 24.254416
155.83057 83.960823 24.447947
155.74226 85.312805 24.653435
155.66359 86.518349 24.866005
155.59543 87.563782 25.079765
155.53865 88.435265 25.287394
155.49425 89.117989 25.479279
155.46333 89.594131 25.641409
155.44775 89.834732 25.747255
155.44359 89.901672 25.859821
155.43517 90.041031 26.225054
155.42455 90.220665 26.809025
155.41287 90.422386 27.590366
155.40086 90.634819 28.553169
155.38902 90.849678 29.683247
155.37776 91.06041 30.966883
155.3674 91.261681 32.390293
155.3582 91.44902 33.939384
155.35039 91.61869 35.599636
155.34413 91.767555 37.356083
155.33957 91.893013 39.193325
155.33681 91.992996 41.095558
155.33592 92.065895 43.046658
155.33696 92.110588 45.030228
155.33992 92.126381 47.029709
155.34479 92.113068 49.02845
155.35152 92.070854 51.009808
155.36003 92.000427 52.957226
155.37022 91.902916 54.85434
155.38194 91.779922 56.68504
155.39505 91.63353 58.433563
155.40932 91.466331 60.084545
155.42451 91.281487 61.623062
155.44038 91.082756 63.03463
155.45657 90.874634 64.305191
155.47272 90.662537 65.42099
155.48836 90.453072 66.368279
155.5029 90.254723 67.132805
155.51555 90.079193 67.69838
155.52499 89.945663 68.042732
154.95538 92.137924 70.391983
154.96803 91.94796 70.482384
154.99895 91.481987 70.650093
155.04532 90.781372 70.855949
155.10574 89.867447 71.082436
155.17906 88.757088 71.318024
155.26427 87.465736 71.5541
155.36034 86.008507 71.783813
155.46626 84.400696 72.001511
155.58101 82.657974 72.202484
155.70351 80.796478 72.382767
155.83266 78.832878 72.539062
155.96733 76.784286 72.668663
156.10637 74.668243 72.769417
156.24861 72.502655 72.839706
156.39284 70.305672 72.878426
156.53786 68.095627 72.884964
156.68246 65.890915 72.85923
156.82545 63.709904 72.80162
156.96562 61.570843 72.71302
157.10181 59.491745 72.594856
157.23283 57.490318 72.449043
157.35757 55.583874 72.278069
157.47495 53.789272 72.084969
157.58385 52.122883 71.873436
157.68329 50.600578 71.64785
157.77223 49.237804 71.413445
157.84972 48.049721 71.176537
157.91473 47.051579 70.944908
157.96628 46.259472 70.728668
158.00313 45.692287 70.542213
158.02345 45.378395 70.410973
158.02844 45.29937 70.315056
158.03714 45.155842 69.954956
158.0486 44.962761 69.347313
158.06139 44.742577 68.517838
158.07468 44.508705 67.484734
158.08784 44.270782 66.263885
158.10045 44.036301 64.870514
158.11211 43.811382 63.319832
158.12251 43.601101 61.62738
158.13144 43.40974 59.809143
158.13867 43.240871 57.881603
158.14404 43.097466 55.861732
158.14743 42.981911 53.766953
158.14877 42.896072 51.615055
158.14798 42.841286 49.424149
158.14507 42.81839 47.212536
158.14003 42.827717 44.998642
158.13292 42.869102 42.8009
158.12383 42.941883 40.637653
158.11285 43.044891 38.527065
158.10014 43.176441 36.487015
158.08588 43.33432 34.535023
158.07028 43.515747 32.688175
158.05362 43.717346 30.963081
158.03615 43.93507 29.375847
158.01826 44.164078 27.942104
158.00035 44.39859 26.677135
157.98291 44.631527 25.596109
157.96655 44.853935 24.714653
157.95212 45.053635 24.050135
157.94092 45.211475 23.625393
157.93567 45.287178 23.482922
157.91953 45.529785 23.373367
157.88589 46.037109 23.197544
157.83707 46.774899 22.987223
157.7744 47.722969 22.758499
157.69901 48.864826 22.522284
157.61191 50.185131 22.286835
157.5141 51.668755 22.058777
157.40662 53.300358 21.843584
157.2905 55.064198 21.645834
157.16679 56.944035 21.46937
157.03664 58.923141 21.31739
156.90115 60.984314 21.192503
156.76149 63.109943 21.096771
156.61884 65.282089 21.031727
156.4744 67.482552 20.998392
156.32936 69.692986 20.997282
156.18494 71.894997 21.028419
156.04234 74.070221 21.091318
155.90276 76.200455 21.184998
155.76736 78.267723 21.307964
155.63731 80.254379 21.458193
155.51373 82.143181 21.63312
155.39772 83.917358 21.829592
155.29033 85.560616 22.043818
155.1926 87.057167 22.271278
155.1055 88.391624 22.506578
155.03004 89.548843 22.743196
154.96721 90.513512 22.973026
154.91806 91.269241 23.185429
154.88383 91.796295 23.364897
154.86659 92.062622 23.482059
154.86198 92.136726 23.606663
154.85266 92.290977 24.01095
154.84091 92.489822 24.657364
154.82799 92.713112 25.522255
154.81468 92.948265 26.588009
154.80159 93.186096 27.838926
154.78912 93.419357 29.259821
154.77765 93.642151 30.835438
154.76747 93.849525 32.550171
154.75882 94.037338 34.387951
154.75189 94.202118 36.332218
154.74684 94.340996 38.365913
154.74379 94.451668 40.471554
154.74281 94.532364 42.631283
154.74396 94.581833 44.826954
154.74722 94.599319 47.040241
154.75261 94.584579 49.252708
154.76007 94.537857 51.44593
154.76949 94.459892 53.601585
154.78076 94.351959 55.701553
154.79375 94.215805 57.728012
154.80824 94.053757 59.663506
154.82404 93.868683 61.491028
154.84087 93.66407 63.194054
154.85843 93.444092 64.756561
154.87636 93.213722 66.162987
154.89423 92.978943 67.398087
154.91153 92.747086 68.446678
154.92763 92.527519 69.292946
154.94164 92.333221 69.919006
154.95209 92.185417 70.300179
154.31581 94.183258 72.47361
154.32957 93.97644 72.572029
154.36324 93.469124 72.754616
154.41373 92.706352 72.978737
154.47951 91.711349 73.225319
154.55934 90.50248 73.481812
154.6521 89.096558 73.738831
154.75668 87.510048 73.988922
154.87201 85.759598 74.225937
154.99695 83.862259 74.444733
155.13031 81.835617 74.641014
155.27092 79.697807 74.811172
155.41754 77.467468 74.952271
155.56891 75.163696 75.061966
155.72377 72.805977 75.138489
155.88078 70.414085 75.180641
156.03867 68.007965 75.187767
156.19611 65.607651 75.159752
156.35178 63.233147 75.097023
156.50439 60.904312 75.000572
156.65265 58.640762 74.871918
156.7953 56.461769 74.713173
156.93112 54.386189 74.527023
157.0589 52.432373 74.316795
157.17747 50.618145 74.086494
157.28572 48.960785 73.840897
157.38255 47.477108 73.585693
157.46692 46.18362 73.327766
157.5377 45.096924 73.075584
157.59383 44.234543 72.840164
157.63394 43.617039 72.637169
157.65607 43.275295 72.494278
157.66151 43.189262 72.389862
157.67097 43.033001 71.99781
157.68344 42.822788 71.336258
157.69737 42.583069 70.433197
157.71184 42.328449 69.308434
157.72617 42.069416 67.979271
157.73988 41.814137 66.46228
157.75258 41.56926 64.774033
157.76392 41.340324 62.931427
157.77364 41.131985 60.951878
157.78151 40.948135 58.853329
157.78735 40.792004 56.654259
157.79105 40.666199 54.373631
157.7925 40.572746 52.030827
157.79164 40.5131 49.645542
157.78847 40.488174 47.23772
157.78299 40.498329 44.827412
157.77525 40.543385 42.434689
157.76535 40.622623 40.079525
157.7534 40.734768 37.781689
157.73956 40.877991 35.56065
157.72403 41.049873 33.435478
157.70706 41.247398 31.424784
157.6889 41.466885 29.546642
157.66991 41.703922 27.818588
157.65042 41.953247 26.257648
157.63092 42.208565 24.880453
157.61192 42.46217 23.70352
157.59412 42.704308 22.743864
157.57841 42.921722 22.02039
157.56621 43.093567 21.557964
157.56049 43.175987 21.402853
157.54292 43.440117 21.283581
157.5063 43.992455 21.092157
157.45314 44.795692 20.863176
157.38492 45.827881 20.614162
157.30284 47.071041 20.356989
157.20801 48.508476 20.100651
157.10153 50.123726 19.852362
156.98451 51.900085 19.618076
156.85808 53.820408 19.402782
156.72342 55.867023 19.210663
156.58171 58.021709 19.045198
156.4342 60.265747 18.909233
156.28215 62.579956 18.805008
156.12685 64.944809 18.734194
155.96959 67.340492 18.697901
155.81168 69.74704 18.696693
155.65445 72.144409 18.730591
155.49921 74.512619 18.799072
155.34723 76.831841 18.901062
155.19983 79.082512 19.034937
155.05824 81.245422 19.198494
154.92369 83.301796 19.388941
154.79739 85.233368 19.602844
154.68047 87.022415 19.836075
154.57407 88.651741 20.083715
154.47925 90.104584 20.339891
154.39709 91.364471 20.597502
154.32869 92.414726 20.847721
154.27516 93.237503 21.078968
154.2379 93.811317 21.274359
154.21913 94.101273 21.401915
154.21411 94.181946 21.537573
154.20398 94.349892 21.977728
154.19118 94.566376 22.681492
154.17711 94.809471 23.623114
154.16263 95.065491 24.783421
154.14836 95.324417 26.145317
154.1348 95.578377 27.69227
154.1223 95.82093 29.407673
154.11122 96.046707 31.274534
154.10181 96.251183 33.27536
154.09425 96.43058 35.392117
154.08876 96.581779 37.606239
154.08543 96.702271 39.898689
154.08437 96.790131 42.250023
154.08562 96.843987 44.640495
154.08919 96.863022 47.05014
154.09505 96.84697 49.458893
154.10316 96.796104 51.846695
154.11342 96.711227 54.193596
154.1257 96.593712 56.47987
154.13983 96.445488 58.686111
154.15561 96.269058 60.79332
154.17281 96.067566 62.782978
154.19113 95.844803 64.637093
154.21025 95.605309 66.338226
154.22977 95.3545 67.869423
154.24922 95.098885 69.214104
154.26807 94.846458 70.355721
154.2856 94.607414 71.277069
154.30083 94.395882 71.958672
154.31223 94.234962 72.373657
153.60687 96.068985 74.400848
153.62167 95.846573 74.506691
153.65787 95.300987 74.703049
153.71217 94.480675 74.944077
153.78291 93.410606 75.209259
153.86876 92.11055 75.4851
153.96852 90.598572 75.761513
154.08099 88.89238 76.030464
154.20503 87.00988 76.285355
154.33937 84.969421 76.52066
154.4828 82.789902 76.73175
154.63402 80.490822 76.914742
154.7917 78.092232 77.066483
154.9545 75.61467 77.184456
155.12103 73.079102 77.266754
155.2899 70.506775 77.312088
155.45969 67.919144 77.319748
155.629 65.337761 77.289619
155.79642 62.784138 77.22216
155.96054 60.279625 77.118431
156.11998 57.845318 76.980072
156.27341 55.501953 76.809349
156.41946 53.269802 76.609161
156.55687 51.168598 76.38308
156.68439 49.21751 76.135399
156.80081 47.435127 75.871277
156.90495 45.839527 75.596825
156.99567 44.448463 75.319435
157.07181 43.279793 75.048233
157.13216 42.35236 74.795052
157.17529 41.688271 74.576744
157.1991 41.320751 74.423073
157.20494 41.228226 74.310783
157.21513 41.060177 73.889153
157.22855 40.834106 73.177696
157.24352 40.576305 72.206512
157.25906 40.302479 70.996902
157.27449 40.023903 69.567474
157.28925 39.749367 67.93605
157.30289 39.486015 66.120438
157.31508 39.239815 64.13884
157.32553 39.015759 62.009964
157.334 38.818039 59.753109
157.34029 38.650131 57.388153
157.34427 38.514835 54.935482
157.34583 38.41433 52.415943
157.34491 38.350185 49.850727
157.34149 38.32338 47.261269
157.33559 38.334297 44.669136
157.32727 38.382755 42.095917
157.31662 38.467968 39.563087
157.30377 38.588573 37.091911
157.28889 38.742599 34.703327
157.27219 38.927452 32.417843
157.25394 39.139877 30.25547
157.23441 39.375919 28.235649
157.21397 39.630836 26.377239
157.19302 39.898972 24.698549
157.17204 40.17355 23.217463
157.15163 40.446281 21.951748
157.13248 40.706688 20.919699
157.11559 40.940506 20.141649
157.10246 41.125313 19.644341
157.09631 41.213947 19.477528
157.07742 41.498005 19.349258
157.03802 42.092007 19.143394
156.98087 42.955841 18.897141
156.90749 44.065887 18.629341
156.81921 45.402828 18.352768
156.71724 46.9487 18.077093
156.60272 48.685795 17.810074
156.47688 50.596153 17.558115
156.34091 52.661339 17.32658
156.19609 54.862343 17.119968
156.0437 57.179569 16.942022
155.88506 59.592884 16.795801
155.72154 62.081673 16.683714
155.55452 64.624916 16.607557
155.38539 67.201324 16.568525
155.21558 69.789406 16.567226
155.04649 72.367622 16.603682
154.87953 74.914482 16.677328
154.71609 77.408653 16.787012
154.55757 79.829109 16.930986
154.4053 82.155174 17.106882
154.2606 84.366676 17.311695
154.12477 86.443962 17.541733
153.99904 88.367966 17.792559
153.8846 90.120193 18.058882
153.78262 91.68264 18.334381
153.69429 93.037567 18.611425
153.62071 94.167046 18.88052
153.56316 95.051895 19.12921
153.52309 95.668999 19.33934
153.5029 95.98082 19.476521
153.4975 96.067581 19.622412
153.48659 96.248192 20.095768
153.47282 96.48101 20.852621
153.4577 96.742447 21.865274
153.44212 97.017776 23.113111
153.42679 97.296234 24.577744
153.41219 97.569351 26.241392
153.39876 97.830208 28.086197
153.38684 98.073013 30.093885
153.37671 98.292915 32.245647
153.36861 98.48584 34.522083
153.36269 98.648445 36.903229
153.35912 98.77803 39.36861
153.35797 98.872513 41.89732
153.3593 98.930428 44.468117
153.36314 98.950905 47.059536
153.36945 98.933647 49.649998
153.37817 98.878937 52.217922
153.38921 98.787659 54.741863
153.4024 98.661278 57.200607
153.4176 98.501869 59.573277
153.43459 98.312141 61.839443
153.45308 98.095444 63.979191
153.47278 97.855873 65.973175
153.49333 97.598312 67.802635
153.51433 97.328583 69.449341
153.53525 97.053688 70.895454
153.55551 96.782219 72.123192
153.57437 96.525146 73.114044
153.59076 96.297653 73.847061
153.603 96.124596 74.293358
152.82668 97.815865 76.194489
152.84244 97.578926 76.307236
152.881 96.997734 76.516418
152.93884 96.123878 76.773178
153.01421 94.983963 77.055672
153.10565 93.599045 77.34951
153.21193 91.988373 77.643967
153.33176 90.170815 77.930481
153.46387 88.165443 78.202011
153.60699 85.991791 78.452675
153.75978 83.670006 78.677536
153.92087 81.220856 78.872475
154.08884 78.665703 79.034126
154.26227 76.026428 79.15979
154.43967 73.325348 79.247459
154.61955 70.585121 79.295753
154.80043 67.82859 79.303917
154.9808 65.078712 79.27182
155.15915 62.358402 79.199959
155.33397 59.690411 79.089455
155.50383 57.09721 78.94207
155.66725 54.600887 78.760201
155.82285 52.223034 78.546951
155.96924 49.98468 78.306107
156.10507 47.906239 78.042259
156.2291 46.007511 77.760895
156.34004 44.307762 77.468529
156.43668 42.825901 77.173035
156.51778 41.580944 76.884132
156.58206 40.592976 76.614426
156.62802 39.88554 76.381866
156.65338 39.49403 76.21817
156.65961 39.395466 76.098541
156.67046 39.216446 75.649399
156.68474 38.97562 74.891502
156.7007 38.700989 73.856926
156.71725 38.40929 72.568359
156.73369 38.112534 71.045631
156.7494 37.820076 69.307716
156.76395 37.539536 67.373596
156.77693 37.277264 65.26265
156.78807 37.038582 62.994812
156.79709 36.827957 60.590645
156.80379 36.64909 58.07132
156.80801 36.504963 55.458557
156.80968 36.3979 52.774559
156.8087 36.329567 50.041901
156.80507 36.30101 47.283421
156.79878 36.312641 44.522095
156.78992 36.364262 41.78091
156.77856 36.455036 39.082756
156.76488 36.583515 36.450279
156.74902 36.747597 33.905781
156.73125 36.944511 31.471117
156.71179 37.170803 29.167599
156.69099 37.422253 27.015938
156.66922 37.69381 25.036222
156.64691 37.979446 23.247959
156.62456 38.271946 21.670198
156.6028 38.562485 20.321865
156.58241 38.839886 19.22245
156.56441 39.088963 18.393616
156.55043 39.285835 17.863846
156.54388 39.380257 17.686144
156.52376 39.682854 17.549503
156.4818 40.315628 17.330202
156.4209 41.235847 17.067875
156.34274 42.41835 16.782595
156.2487 43.84256 16.487968
156.14006 45.489334 16.1943
156.01808 47.339817 15.909851
155.88402 49.37487 15.641446
155.73918 51.574856 15.394797
155.5849 53.919525 15.1747
155.42256 56.388004 14.98514
155.25357 58.958847 14.829373
155.07938 61.610085 14.70997
154.90144 64.319336 14.628841
154.72128 67.063911 14.587262
154.54039 69.82093 14.585879
154.36026 72.567436 14.624714
154.1824 75.280533 14.703167
154.0083 77.937508 14.820011
153.83943 80.515953 14.973382
153.67722 82.993851 15.16076
153.52309 85.349701 15.378941
153.37839 87.562584 15.623995
153.24443 89.612175 15.891193
153.12253 91.478775 16.174898
153.0139 93.143204 16.468382
152.9198 94.586578 16.76351
152.84142 95.78978 17.050169
152.78011 96.732376 17.315092
152.73741 97.389763 17.538939
152.71591 97.721939 17.685072
152.71016 97.814369 17.840485
152.69855 98.006767 18.34474
152.68388 98.254776 19.150995
152.66777 98.533279 20.229748
152.65118 98.826584 21.559034
152.63483 99.123215 23.119268
152.61928 99.414162 24.89151
152.60498 99.692039 26.85673
152.59229 99.950699 28.995468
152.5815 100.18495 31.287682
152.57285 100.39047 33.712708
152.56656 100.56369 36.249279
152.56274 100.70173 38.875584
152.56152 100.80238 41.569351
152.56294 100.86408 44.307953
152.56703 100.88589 47.068523
152.57376 100.86751 49.828068
152.58305 100.80923 52.563614
152.5948 100.71199 55.2523
152.60887 100.57736 57.871532
152.62506 100.40755 60.399075
152.64314 100.20543 62.813164
152.66284 99.974594 65.092575
152.68384 99.719383 67.216713
152.70573 99.445015 69.165588
152.72809 99.157677 70.919777
152.75038 98.864838 72.460289
152.77197 98.575645 73.768166
152.79205 98.301796 74.823692
152.80951 98.059456 75.604553
152.82256 97.875099 76.079979
151.97359 99.438721 77.869431
151.99026 99.188225 77.988632
152.03102 98.573784 78.209785
152.09218 97.649933 78.481232
152.17184 96.444809 78.779884
152.26854 94.980652 79.090538
152.38089 93.277832 79.40184
152.50757 91.3563 79.704742
152.64725 89.236191 79.991806
152.79855 86.938187 80.256813
152.96008 84.483566 80.494537
153.13039 81.894302 80.70063
153.30797 79.19297 80.871529
153.49132 76.402702 81.004387
153.67886 73.547096 81.097069
153.86905 70.650093 81.148125
154.06027 67.735863 81.156754
154.25096 64.828659 81.122818
154.4395 61.952721 81.046844
154.62434 59.132095 80.930023
154.80391 56.390537 80.7742
154.97668 53.751396 80.581932
155.14117 51.237507 80.356476
155.29594 48.871094 80.10186
155.43956 46.673744 79.822922
155.57066 44.666393 79.525452
155.68796 42.869396 79.216362
155.79013 41.302757 78.903961
155.87587 39.98658 78.598534
155.94383 38.942085 78.3134
155.99242 38.19418 78.067535
156.01923 37.78027 77.89447
156.02582 37.676067 77.767998
156.03728 37.486809 77.293159
156.05238 37.232204 76.491905
156.06924 36.94186 75.398132
156.08676 36.633476 74.035851
156.10413 36.31974 72.426003
156.12074 36.010548 70.588661
156.13612 35.713963 68.543892
156.14986 35.436684 66.31218
156.16162 35.184345 63.9146
156.17116 34.961674 61.37289
156.17824 34.772572 58.709431
156.18271 34.620197 55.947193
156.18446 34.507008 53.109642
156.18344 34.434769 50.22065
156.1796 34.404575 47.304352
156.17294 34.416874 44.385048
156.16357 34.471447 41.487041
156.15158 34.567417 38.634525
156.1371 34.703247 35.851444
156.12035 34.876713 33.161373
156.10155 35.084896 30.587423
156.08098 35.324131 28.152119
156.05899 35.589966 25.877359
156.03598 35.87706 23.784386
156.01239 36.179039 21.893814
155.98877 36.48827 20.225788
155.96576 36.795429 18.800318
155.9442 37.088703 17.638004
155.92517 37.352032 16.761751
155.91039 37.560165 16.201674
155.90347 37.659988 16.013807
155.88219 37.979897 15.869348
155.83783 38.648872 15.6375
155.77344 39.621738 15.360164
155.69081 40.871895 15.058564
155.5914 42.377579 14.747082
155.47655 44.118568 14.436612
155.34758 46.074917 14.13589
155.20586 48.226398 13.852129
155.05273 50.552246 13.591371
154.88962 53.031055 13.358681
154.71799 55.640759 13.158276
154.53934 58.358677 12.993597
154.35516 61.161594 12.867363
154.16707 64.025841 12.781593
153.97659 66.927437 12.737636
153.78535 69.842186 12.736174
153.59491 72.745819 12.77723
153.40689 75.614136 12.860171
153.22282 78.423119 12.983701
153.0443 81.149071 13.145845
152.8728 83.768738 13.343944
152.70985 86.259369 13.574607
152.55687 88.598839 13.83368
152.41525 90.765694 14.116165
152.28638 92.739082 14.416101
152.17154 94.498741 14.726375
152.07204 96.024681 15.038386
151.98918 97.296715 15.341446
151.92436 98.293251 15.621526
151.87923 98.988243 15.858177
151.85649 99.339424 16.012671
151.85042 99.437134 16.176977
151.83813 99.640541 16.710081
151.82263 99.90274 17.562462
151.80559 100.19718 18.70293
151.78806 100.50726 20.108265
151.77078 100.82086 21.757761
151.75433 101.12846 23.631393
151.73921 101.42223 25.709044
151.72578 101.69569 27.97014
151.71439 101.94334 30.393492
151.70525 102.16062 32.957256
151.69859 102.34375 35.638947
151.69456 102.48969 38.415501
151.69328 102.5961 41.263382
151.69478 102.66132 44.158657
151.6991 102.68439 47.07716
151.70621 102.66495 49.994583
151.71603 102.60333 52.886627
151.72845 102.50053 55.729134
151.74333 102.35821 58.498215
151.76045 102.17867 61.170361
151.77957 101.965 63.722557
151.8004 101.72095 66.132378
151.82259 101.45114 68.378036
151.84573 101.16107 70.438408
151.86937 100.8573 72.292953
151.89294 100.54771 73.9216
151.91576 100.24197 75.304298
151.93698 99.952454 76.420219
151.95544 99.696243 77.24575
151.96924 99.501343 77.748375
151.0461 100.9485 79.436699
151.06361 100.68533 79.561935
151.10643 100.03977 79.794281
151.17068 99.069153 80.079468
151.25438 97.803017 80.393242
151.35597 96.264732 80.719627
151.474 94.475708 81.046684
151.6071 92.456886 81.364922
151.75386 90.229446 81.666519
151.91283 87.815102 81.944939
152.08253 85.236214 82.194702
152.26146 82.515862 82.411232
152.44803 79.677773 82.590775
152.64066 76.746239 82.730362
152.83769 73.746056 82.827744
153.03751 70.702393 82.881378
153.23842 67.640617 82.890442
153.43875 64.586235 82.85479
153.63684 61.564697 82.774971
153.83104 58.601269 82.652237
154.0197 55.720913 82.488525
154.20122 52.948162 82.286522
154.37404 50.306999 82.049652
154.53664 47.820782 81.782143
154.68753 45.512188 81.489082
154.82527 43.40321 81.176559
154.9485 41.515236 80.851822
155.05585 39.869286 80.523605
155.14594 38.486469 80.202713
155.21733 37.389099 79.903137
155.26837 36.603325 79.644829
155.29655 36.168461 79.462997
155.30347 36.058983 79.330132
155.31552 35.860142 78.831245
155.33139 35.592651 77.989426
155.34911 35.287609 76.840286
155.36749 34.963608 75.409035
155.38574 34.633987 73.717682
155.4032 34.309147 71.787323
155.41936 33.997543 69.63903
155.43379 33.706226 67.294334
155.44615 33.441113 64.775368
155.45616 33.207169 62.10498
155.46361 33.008492 59.306679
155.46831 32.848404 56.404594
155.47015 32.729485 53.423389
155.46907 32.653587 50.388134
155.46503 32.621868 47.324196
155.45805 32.634789 44.257095
155.4482 32.692123 41.212372
155.43559 32.792953 38.215439
155.42039 32.935658 35.291458
155.40279 33.117905 32.465199
155.38303 33.336628 29.760935
155.36143 33.587978 27.202339
155.33833 33.867271 24.812416
155.31415 34.168896 22.61348
155.28935 34.486164 20.627193
155.26454 34.811054 18.874722
155.24037 35.133762 17.377083
155.21771 35.441883 16.155926
155.19772 35.718544 15.23531
155.18221 35.937214 14.646877
155.17493 36.042091 14.449498
155.15257 36.378193 14.297726
155.10596 37.081039 14.054141
155.03831 38.103157 13.762764
154.95151 39.416607 13.445895
154.84706 40.99852 13.118643
154.72639 42.827652 12.792456
154.5909 44.883045 12.476508
154.44199 47.143448 12.178382
154.28111 49.587048 11.904422
154.10976 52.191349 11.659951
153.92943 54.933174 11.4494
153.74173 57.788696 11.276384
153.54825 60.733517 11.143759
153.35062 63.742775 11.053647
153.1505 66.791267 11.007464
152.94957 69.853577 11.005928
152.7495 72.904213 11.049064
152.55194 75.917747 11.136204
152.35857 78.868942 11.265986
152.17099 81.732903 11.436341
151.99083 84.485191 11.644467
151.81963 87.101913 11.886808
151.65889 89.55983 12.158998
151.51012 91.83638 12.455785
151.37471 93.909683 12.770905
151.25406 95.758423 13.096887
151.14952 97.361618 13.424695
151.06247 98.698059 13.743097
150.99437 99.745041 14.037357
150.94696 100.47522 14.28599
150.92307 100.84418 14.448306
150.91667 100.94684 14.62093
150.90378 101.16055 15.181023
150.8875 101.43602 16.076557
150.86958 101.74536 17.274765
150.85117 102.07114 18.751247
150.83301 102.40062 20.484251
150.81573 102.72379 22.452742
150.79985 103.03244 24.635578
150.78575 103.31973 27.011147
150.77376 103.57993 29.557186
150.76416 103.80821 32.250744
150.75717 104.00061 35.068203
150.75294 104.15393 37.985329
150.75159 104.26573 40.977386
150.75317 104.33426 44.019241
150.75771 104.35849 47.085499
150.76517 104.33807 50.150623
150.77548 104.27333 53.189083
150.78854 104.16533 56.175499
150.80417 104.01579 59.08477
150.82216 103.82717 61.892197
150.84224 103.60268 64.573608
150.86412 103.34628 67.105431
150.88744 103.06281 69.464783
150.91176 102.75805 71.629456
150.9366 102.4389 73.577904
150.96135 102.11363 75.289001
150.98534 101.79242 76.741699
151.00763 101.48824 77.914108
151.02702 101.21906 78.781441
151.04152 101.0143 79.309509
150.04262 102.35348 80.904625
150.06093 102.07843 81.035515
150.10568 101.40375 81.278343
150.17284 100.38933 81.576401
150.26031 99.066055 81.904335
150.36649 97.458359 82.245445
150.48984 95.5886 82.587265
150.62895 93.478683 82.919861
150.78232 91.150734 83.235069
150.94846 88.627434 83.526054
151.12582 85.932175 83.787086
151.31282 83.089073 84.01339
151.50781 80.122902 84.201035
151.70914 77.05909 84.346916
151.91507 73.923523 84.448692
152.1239 70.742508 84.504753
152.33388 67.54258 84.514221
152.54324 64.350365 84.476967
152.75027 61.192478 84.393547
152.95323 58.095325 84.265266
153.15041 55.084995 84.09417
153.34013 52.187122 83.883057
153.52075 49.426777 83.635498
153.69067 46.828369 83.355911
153.84837 44.4156 83.049629
153.99234 42.211452 82.723
154.12112 40.238285 82.383606
154.23331 38.518059 82.040581
154.32747 37.072845 81.705208
154.4021 35.925953 81.39212
154.45543 35.104725 81.122154
154.48488 34.650238 80.932121
154.49211 34.53582 80.793251
154.5047 34.328007 80.271858
154.52129 34.048443 79.392044
154.53981 33.729633 78.191055
154.55904 33.391014 76.695213
154.57811 33.04652 74.927544
154.59634 32.70702 72.910072
154.61324 32.381355 70.664841
154.62831 32.076893 68.21434
154.64122 31.799816 65.581711
154.65169 31.555313 62.790817
154.65947 31.347672 59.866241
154.66438 31.180363 56.833202
154.66632 31.056076 53.717468
154.66518 30.976753 50.545246
154.66096 30.943602 47.343048
154.65367 30.957106 44.137543
154.64337 31.017027 40.955425
154.6302 31.122406 37.823257
154.61432 31.271551 34.76733
154.59592 31.462025 31.813536
154.57527 31.690617 28.987242
154.55269 31.953308 26.313189
154.52855 32.245205 23.81542
154.50327 32.56044 21.517258
154.47736 32.892025 19.441339
154.45142 33.231575 17.609787
154.42616 33.568848 16.044567
154.40248 33.890873 14.768305
154.38159 34.180016 13.806147
154.36537 34.408554 13.191161
154.35776 34.518166 12.984876
154.3344 34.869434 12.826254
154.28569 35.603992 12.571677
154.215 36.672237 12.267152
154.12427 38.044956 11.935985
154.01511 39.698254 11.593966
153.88899 41.609924 11.253058
153.74739 43.758064 10.922854
153.59177 46.120468 10.611275
153.42361 48.674335 10.324952
153.24452 51.39616 10.069449
153.05606 54.261707 9.8493977
152.85989 57.246086 9.6685753
152.65768 60.323792 9.5299644
152.45114 63.468842 9.4357872
152.24199 66.6549 9.3875198
152.032 69.8554 9.3859138
151.82289 73.043694 9.4309959
151.61642 76.193214 9.522068
151.41432 79.27758 9.6577082
151.21829 82.270775 9.8357496
151.02998 85.147263 10.053267
150.85106 87.882065 10.306544
150.68307 90.450897 10.591017
150.52759 92.830177 10.901196
150.38606 94.997032 11.230536
150.25998 96.929199 11.571228
150.15073 98.604744 11.913828
150.05974 100.00149 12.246598
149.98856 101.09571 12.554136
149.93901 101.85884 12.813989
149.91405 102.24445 12.983629
149.90736 102.35175 13.164042
149.89388 102.57509 13.74941
149.87686 102.863 14.685355
149.85815 103.18629 15.937633
149.8389 103.52678 17.480742
149.81992 103.87112 19.291948
149.80186 104.20888 21.349266
149.78526 104.53146 23.630604
149.77052 104.83172 26.113369
149.758 105.10365 28.7743
149.74797 105.34223 31.589405
149.74066 105.54331 34.534
149.73624 105.70356 37.58276
149.73482 105.8204 40.709835
149.73648 105.89202 43.888958
149.74121 105.91734 47.093578
149.74902 105.896 50.297016
149.75981 105.82835 53.472588
149.77345 105.71547 56.593765
149.78978 105.55918 59.634315
149.80858 105.36205 62.568432
149.82957 105.12743 65.370834
149.85245 104.85946 68.016914
149.8768 104.56319 70.482727
149.90222 104.24469 72.745087
149.92818 103.91113 74.781448
149.95406 103.57119 76.569763
149.97913 103.23548 78.088013
150.00243 102.91758 79.313332
150.02269 102.63625 80.219803
150.03784 102.42224 80.771706
148.96153 103.66002 82.279671
148.98058 103.37385 82.415848
149.02713 102.67188 82.668503
149.097 101.61644 82.978615
149.18802 100.23965 83.319801
149.29848 98.566956 83.674706
149.42683 96.62159 84.03035
149.57156 94.426353 84.376396
149.73114 92.004265 84.704346
149.90399 89.378937 85.007095
150.08853 86.574692 85.278687
150.2831 83.616623 85.514137
150.48598 80.530518 85.709373
150.69543 77.342812 85.861153
150.9097 74.08046 85.967041
151.12697 70.770813 86.025368
151.34543 67.441483 86.035225
151.56328 64.120193 85.99646
151.77867 60.834614 85.909668
151.98984 57.612221 85.776199
152.19499 54.480164 85.59819
152.39238 51.465115 85.378532
152.58029 48.593151 85.120964
152.7571 45.889671 84.830078
152.92117 43.379337 84.511406
153.07097 41.086063 84.17157
153.20496 39.033112 83.818459
153.32167 37.243324 83.461555
153.41963 35.73967 83.112625
153.49728 34.546402 82.786873
153.55278 33.691967 82.505989
153.58342 33.219101 82.308273
153.59094 33.100056 82.163788
153.60403 32.883839 81.621307
153.62129 32.592972 80.705925
153.64056 32.261272 79.456367
153.66057 31.90896 77.900047
153.6804 31.550537 76.060898
153.69939 31.197306 73.961845
153.71695 30.858473 71.625824
153.73265 30.541698 69.076233
153.74608 30.25342 66.337151
153.75697 29.999029 63.433403
153.76506 29.782991 60.390568
153.77019 29.608917 57.234882
153.77219 29.479605 53.99316
153.77101 29.397076 50.692665
153.76662 29.362583 47.360985
153.75903 29.376633 44.02586
153.74832 29.438978 40.715069
153.73462 29.548618 37.456245
153.71808 29.703794 34.276749
153.69894 29.90197 31.203516
153.67746 30.139805 28.262938
153.65396 30.413118 25.480755
153.62885 30.716818 22.881987
153.60254 31.044802 20.490894
153.57559 31.389795 18.331034
153.5486 31.743073 16.425421
153.52232 32.093983 14.796908
153.4977 32.429028 13.469039
153.47595 32.729866 12.467974
153.45908 32.967644 11.828121
153.45116 33.081688 11.613494
153.42685 33.447163 11.448459
153.37617 34.211426 11.183588
153.30261 35.322865 10.866749
153.20822 36.751087 10.52219
153.09465 38.471241 10.166341
152.96344 40.460213 9.8116484
152.8161 42.695217 9.468092
152.65417 45.153149 9.1439133
152.47925 47.810284 8.8460131
