# .PCD v0.7 - Point Cloud Data file format
VERSION 0.7
FIELDS x y z
SIZE 4 4 4
TYPE F F F
COUNT 1 1 1
WIDTH 1538
HEIGHT 1
VIEWPOINT 0 0 0 1 0 0 0
POINTS 1538
DATA ascii
1498.9905 -1489.5931 50.887199
1498.9893 -1491.0953 47.60099
1498.988 -1492.4319 44.242916
1498.9868 -1493.5996 40.821339
1498.9855 -1494.5955 37.344772
1498.9841 -1495.4171 33.821869
1498.9828 -1496.0623 30.261381
1498.9813 -1496.5295 26.672152
1498.9799 -1496.8176 23.06308
1498.9783 -1496.9258 19.443089
1498.9768 -1496.8539 15.821095
1498.9752 -1496.6018 12.205948
1498.9736 -1496.1703 8.606308
1498.972 -1495.5602 5.0301704
1498.9705 -1494.7725 1.4843508
1498.9689 -1493.8112 -2.0132067
1498.9672 -1492.6781 -5.4566774
1498.9656 -1491.3757 -8.8382607
1498.964 -1489.9073 -12.149835
1498.9624 -1488.2766 -15.38331
1498.9608 -1486.4874 -18.530727
1498.9592 -1484.5444 -21.584305
1498.9576 -1482.4524 -24.53648
1498.9562 -1480.2164 -27.379925
1498.9547 -1477.8422 -30.107576
1498.9532 -1475.3356 -32.71265
1498.9518 -1472.7029 -35.188671
1498.9503 -1469.9506 -37.529469
1498.949 -1467.0856 -39.729225
1498.9478 -1464.115 -41.782452
1498.9465 -1461.0463 -43.68404
1498.9453 -1457.887 -45.429249
1498.9441 -1454.645 -47.013729
1498.9431 -1451.3286 -48.433533
1498.942 -1447.9458 -49.685116
1498.941 -1444.505 -50.765354
1498.9402 -1441.015 -51.671558
1498.9393 -1437.4843 -52.401455
1498.9386 -1433.9216 -52.953224
1498.938 -1430.3359 -53.325478
1498.9374 -1426.7362 -53.517273
1498.9368 -1423.131 -53.528118
1498.9364 -1419.5294 -53.357944
1498.936 -1415.9402 -53.00713
1498.9357 -1412.3715 -52.47641
1498.9354 -1408.8292 -51.76643
1498.9353 -1405.3295 -50.880558
1498.9353 -1401.8813 -49.82106
1498.9353 -1398.4918 -48.590248
1498.9354 -1395.1689 -47.191101
1498.9355 -1391.9209 -45.627064
1498.9358 -1388.7555 -43.902008
1498.9362 -1385.6807 -42.020214
1498.9366 -1382.704 -39.986366
1498.9371 -1379.8328 -37.805523
1498.9376 -1377.0743 -35.48312
1498.9384 -1374.4353 -33.02494
1498.9391 -1371.9224 -30.437109
1498.9398 -1369.5419 -27.726074
1498.9407 -1367.2996 -24.89859
1498.9417 -1365.201 -21.961704
1498.9426 -1363.2517 -18.922735
1498.9437 -1361.4562 -15.789253
1498.9448 -1359.8191 -12.569066
1498.9459 -1358.3445 -9.2701941
1498.9473 -1357.0361 -5.9008527
1498.9485 -1355.8971 -2.46943
1498.9498 -1354.9303 1.0155345
1498.9512 -1354.1383 4.5453734
1498.9526 -1353.5229 8.1113138
1498.9541 -1353.0857 11.704503
1498.9556 -1352.8279 15.316037
1498.957 -1352.7499 18.936987
1498.9586 -1352.8522 22.558445
1498.9601 -1353.1344 26.171581
1498.9617 -1353.5961 29.767794
1498.9634 -1354.2361 33.33939
1498.965 -1355.0532 36.878189
1498.9666 -1356.0436 40.367146
1498.9681 -1357.2054 43.800774
1498.9697 -1358.5359 47.171154
1498.9714 -1360.0319 50.470161
1498.973 -1361.6896 53.689716
1498.9746 -1363.5049 56.821896
1498.9761 -1365.4733 59.858944
1498.9777 -1367.59 62.793343
1498.9792 -1369.8495 65.617805
1498.9807 -1372.2465 68.32531
1498.9822 -1374.7747 70.909126
1498.9835 -1377.428 73.362831
1498.985 -1380.1997 75.680313
1498.9863 -1383.083 77.855804
1498.9875 -1386.0706 79.883881
1498.9888 -1389.155 81.759499
1498.99 -1392.3287 83.477974
1498.9911 -1395.5839 85.035027
1498.9922 -1398.9121 86.426781
1498.9932 -1402.3052 87.649765
1498.9941 -1405.7548 88.700912
1498.995 -1409.2523 89.577621
1498.9958 -1412.7891 90.277679
1498.9966 -1416.3561 90.799347
1498.9972 -1419.9448 91.141312
1498.9978 -1423.5461 91.302704
1498.9984 -1427.1512 91.283104
1498.9988 -1430.7513 91.08252
1498.9991 -1434.3378 90.701393
1498.9994 -1437.9022 90.140518
1496.8419 -1440.729 91.852783
1496.8422 -1444.3455 90.969734
1496.8422 -1447.9094 89.907516
1496.8422 -1451.4142 88.668251
1496.842 -1454.8516 87.254906
1496.8419 -1458.2134 85.670952
1496.8417 -1461.4913 83.920319
1496.8413 -1464.6771 82.007339
1496.8409 -1467.7632 79.936783
1496.8405 -1470.7417 77.713791
1496.8398 -1473.6053 75.34391
1496.8391 -1476.3468 72.833031
1496.8384 -1478.9596 70.187424
1496.8376 -1481.4369 67.413673
1496.8368 -1483.7727 64.518684
1496.8358 -1485.9613 61.509686
1496.8348 -1487.9969 58.394169
1496.8337 -1489.8748 55.179893
1496.8325 -1491.5901 51.874866
1496.8314 -1493.1385 48.487328
1496.8301 -1494.5165 45.025707
1496.8289 -1495.7201 41.498631
1496.8274 -1496.7467 37.914867
1496.826 -1497.5936 34.283337
1496.8246 -1498.2588 30.613062
1496.8231 -1498.7404 26.91316
1496.8215 -1499.0374 23.192802
1496.8201 -1499.1489 19.461191
1496.8185 -1499.0747 15.727516
1496.8169 -1498.8149 12.000898
1496.8152 -1498.3701 8.2902651
1496.8136 -1497.7412 4.6038594
1496.8119 -1496.9292 0.94870591
1496.8103 -1495.9382 -2.6566973
1496.8086 -1494.7701 -6.2063456
1496.8069 -1493.4276 -9.6921978
1496.8053 -1491.9141 -13.105884
1496.8036 -1490.2329 -16.439062
1496.802 -1488.3887 -19.683527
1496.8004 -1486.3857 -22.831261
1496.7987 -1484.2292 -25.874464
1496.7972 -1481.9243 -28.805586
1496.7957 -1479.4769 -31.617342
1496.7942 -1476.8929 -34.302742
1496.7927 -1474.1791 -36.85511
1496.7913 -1471.3419 -39.268085
1496.7898 -1468.3885 -41.535667
1496.7886 -1465.3264 -43.652206
1496.7872 -1462.1631 -45.612431
1496.786 -1458.9064 -47.411453
1496.7848 -1455.5645 -49.044788
1496.7837 -1452.1458 -50.508369
1496.7827 -1448.6586 -51.798546
1496.7816 -1445.1118 -52.912094
1496.7808 -1441.5142 -53.846237
1496.7799 -1437.8745 -54.59864
1496.7792 -1434.202 -55.167423
1496.7784 -1430.5059 -55.551155
1496.7778 -1426.795 -55.748867
1496.7772 -1423.0787 -55.760044
1496.7767 -1419.3661 -55.584625
1496.7764 -1415.6661 -55.222992
1496.7761 -1411.9874 -54.675907
1496.7759 -1408.3359 -53.944035
1496.7758 -1404.7283 -53.030849
1496.7756 -1401.1738 -51.938683
1496.7756 -1397.6798 -50.669918
1496.7758 -1394.2545 -49.227631
1496.776 -1390.9062 -47.615364
1496.7762 -1387.6432 -45.837116
1496.7766 -1384.4736 -43.897301
1496.7771 -1381.4052 -41.800739
1496.7776 -1378.4454 -39.552654
1496.7782 -1375.6018 -37.158642
1496.7788 -1372.8815 -34.624664
1496.7795 -1370.2911 -31.957037
1496.7804 -1367.8372 -29.162409
1496.7812 -1365.5256 -26.24774
1496.7822 -1363.3625 -23.220297
1496.7832 -1361.353 -20.087622
1496.7843 -1359.5022 -16.857521
1496.7855 -1357.8146 -13.538041
1496.7867 -1356.2946 -10.13745
1496.788 -1354.9458 -6.6642165
1496.7893 -1353.7716 -3.1269877
1496.7906 -1352.7751 0.46543393
1496.7921 -1351.9586 4.1041136
1496.7936 -1351.3242 7.7800078
1496.795 -1350.8735 11.483992
1496.7965 -1350.6078 15.206885
1496.7981 -1350.5275 18.939486
1496.7997 -1350.6328 22.672609
1496.8013 -1350.9238 26.397156
1496.803 -1351.3997 30.104254
1496.8046 -1352.0594 33.78598
1496.8063 -1352.9017 37.433895
1496.8079 -1353.9227 41.030434
1496.8096 -1355.1204 44.569935
1496.8113 -1356.4918 48.044239
1496.8129 -1358.0339 51.444969
1496.8146 -1359.7427 54.763798
1496.8162 -1361.614 57.992554
1496.8177 -1363.6431 61.123253
1496.8193 -1365.825 64.148132
1496.8209 -1368.1543 67.059685
1496.8225 -1370.6251 69.85067
1496.824 -1373.2313 72.51416
1496.8254 -1375.9664 75.043526
1496.8269 -1378.8236 77.432465
1496.8282 -1381.7958 79.675034
1496.8296 -1384.8755 81.765648
1496.8308 -1388.0551 83.699097
1496.832 -1391.3267 85.470558
1496.8333 -1394.6821 87.07563
1496.8344 -1398.1129 88.510292
1496.8353 -1401.6107 89.770981
1496.8363 -1405.1667 90.854546
1496.8373 -1408.7721 91.758286
1496.8381 -1412.4178 92.479935
1496.8389 -1416.0948 93.017685
1496.8396 -1419.7942 93.370193
1496.8402 -1423.5066 93.536568
1496.8407 -1427.2229 93.516357
1496.8412 -1430.9341 93.309593
1496.8416 -1434.631 92.91671
1496.8418 -1438.3054 92.338539
1494.6215 -1441.1649 93.853951
1494.6216 -1444.8806 92.946693
1494.6216 -1448.5421 91.855362
1494.6216 -1452.1429 90.582123
1494.6216 -1455.6747 89.130028
1494.6213 -1459.1287 87.502655
1494.6211 -1462.4963 85.704033
1494.6207 -1465.7697 83.738617
1494.6204 -1468.9402 81.611298
1494.6198 -1472.0004 79.32737
1494.6191 -1474.9425 76.892517
1494.6185 -1477.7592 74.312813
1494.6178 -1480.4435 71.594681
1494.6169 -1482.9888 68.744888
1494.6161 -1485.3887 65.770546
1494.6151 -1487.6371 62.679058
1494.614 -1489.7286 59.478134
1494.6129 -1491.658 56.175743
1494.6117 -1493.4203 52.780121
1494.6105 -1495.0112 49.299717
1494.6093 -1496.4269 45.743206
1494.6079 -1497.6636 42.119438
1494.6064 -1498.7183 38.437431
1494.605 -1499.5884 34.706348
1494.6035 -1500.2717 30.935463
1494.6021 -1500.7666 27.134136
1494.6005 -1501.0718 23.311792
1494.5989 -1501.1863 19.477886
1494.5973 -1501.1101 15.641858
1494.5956 -1500.8431 11.813083
1494.5939 -1500.3862 8.0007296
1494.5922 -1499.74 4.2132678
1494.5905 -1498.9058 0.4579156
1494.5889 -1497.8877 -3.2463226
1494.587 -1496.6875 -6.8932776
1494.5853 -1495.3082 -10.474689
1494.5837 -1493.7531 -13.981953
1494.582 -1492.026 -17.406504
1494.5803 -1490.1311 -20.73991
1494.5786 -1488.0732 -23.973934
1494.577 -1485.8575 -27.100561
1494.5754 -1483.4895 -30.112032
1494.5739 -1480.975 -33.000866
1494.5723 -1478.3203 -35.759884
1494.5708 -1475.532 -38.382217
1494.5693 -1472.6171 -40.861343
1494.5679 -1469.5828 -43.191086
1494.5665 -1466.4366 -45.365646
1494.5652 -1463.1865 -47.379604
1494.5638 -1459.8406 -49.227943
1494.5627 -1456.4071 -50.906055
1494.5615 -1452.8947 -52.409756
1494.5604 -1449.3119 -53.735298
1494.5594 -1445.6678 -54.879375
1494.5585 -1441.9716 -55.839127
1494.5576 -1438.2322 -56.612156
1494.5569 -1434.4591 -57.196529
1494.5562 -1430.6615 -57.590782
1494.5554 -1426.849 -57.793911
1494.5549 -1423.0308 -57.805397
1494.5544 -1419.2164 -57.625168
1494.5541 -1415.415 -57.25362
1494.5537 -1411.6355 -56.69154
1494.5535 -1407.8839 -55.939606
1494.5533 -1404.1774 -55.001385
1494.5532 -1400.5254 -53.879276
1494.5533 -1396.9355 -52.575733
1494.5535 -1393.4164 -51.093906
1494.5536 -1389.9763 -49.437447
1494.5538 -1386.6239 -47.610451
1494.5542 -1383.3674 -45.617458
1494.5547 -1380.2148 -43.463425
1494.5552 -1377.174 -41.153709
1494.5558 -1374.2524 -38.694069
1494.5565 -1371.4575 -36.09063
1494.5573 -1368.7961 -33.349876
1494.5581 -1366.2749 -30.478636
1494.5591 -1363.9 -27.48407
1494.5601 -1361.6776 -24.373634
1494.561 -1359.613 -21.155083
1494.5623 -1357.7114 -17.836435
1494.5634 -1355.9775 -14.425958
1494.5646 -1354.4159 -10.932146
1494.5659 -1353.0302 -7.3637004
1494.5673 -1351.8239 -3.7295053
1494.5687 -1350.7999 -0.038604341
1494.5702 -1349.9611 3.6998227
1494.5717 -1349.3093 7.4764848
1494.5731 -1348.8463 11.282006
1494.5747 -1348.5731 15.106956
1494.5763 -1348.4906 18.941877
1494.578 -1348.599 22.777338
1494.5796 -1348.8978 26.603985
1494.5813 -1349.3867 30.412706
1494.583 -1350.0647 34.195362
1494.5847 -1350.9301 37.943275
1494.5864 -1351.979 41.638409
1494.5881 -1353.2095 45.274937
1494.5898 -1354.6185 48.844482
1494.5916 -1356.2029 52.338436
1494.5933 -1357.9585 55.748245
1494.5948 -1359.8811 59.065514
1494.5966 -1361.9658 62.282032
1494.5981 -1364.2076 65.389832
1494.5999 -1366.6007 68.381195
1494.6013 -1369.1393 71.248695
1494.6029 -1371.8169 73.985199
1494.6044 -1374.627 76.5839
1494.6058 -1377.5625 79.03833
1494.6073 -1380.6162 81.342377
1494.6086 -1383.7803 83.490295
1494.61 -1387.0471 85.476746
1494.6112 -1390.4083 87.296776
1494.6124 -1393.8557 88.945839
1494.6135 -1397.3806 90.419838
1494.6146 -1400.9744 91.715088
1494.6156 -1404.6278 92.828354
1494.6166 -1408.3319 93.756866
1494.6174 -1412.0776 94.498299
1494.6182 -1415.8556 95.050789
1494.6189 -1419.6562 95.412964
1494.6195 -1423.4705 95.583893
1494.6201 -1427.2886 95.563133
1494.6206 -1431.1014 95.350693
1494.621 -1434.8998 94.947044
1494.6212 -1438.6748 94.353027
1492.3434 -1441.5601 95.667801
1492.3436 -1445.3656 94.738602
1492.3436 -1449.1157 93.62088
1492.3436 -1452.8036 92.316849
1492.3435 -1456.4207 90.829643
1492.3434 -1459.9581 89.162918
1492.3431 -1463.4073 87.320793
1492.3428 -1466.7598 85.307846
1492.3423 -1470.0071 83.129082
1492.3418 -1473.1412 80.789925
1492.3412 -1476.1544 78.296196
1492.3405 -1479.0393 75.654106
1492.3397 -1481.7886 72.870239
1492.3389 -1484.3954 69.951538
1492.3379 -1486.8533 66.905266
1492.3369 -1489.1561 63.739017
1492.3358 -1491.2982 60.460686
1492.3347 -1493.2742 57.078434
1492.3335 -1495.0791 53.600697
1492.3323 -1496.7085 50.036129
1492.3309 -1498.1583 46.393612
1492.3296 -1499.4249 42.682209
1492.3281 -1500.5052 38.911163
1492.3267 -1501.3964 35.089855
1492.3252 -1502.0963 31.227779
1492.3236 -1502.603 27.334526
1492.322 -1502.9155 23.419748
1492.3203 -1503.033 19.493128
1492.3187 -1502.9548 15.564336
1492.317 -1502.6815 11.642969
1492.3153 -1502.2135 7.7384248
1492.3135 -1501.5516 3.8593721
1492.3118 -1500.6973 0.01320574
1492.3101 -1499.6545 -3.7806106
1492.3082 -1498.4254 -7.5157585
1492.3065 -1497.0127 -11.183777
1492.3048 -1495.4199 -14.775856
1492.3031 -1493.651 -18.283222
1492.3014 -1491.7104 -21.697239
1492.2997 -1489.6028 -25.009468
1492.298 -1487.3335 -28.211706
1492.2963 -1484.9082 -31.296001
1492.2947 -1482.3329 -34.254696
1492.2931 -1479.6139 -37.080433
1492.2915 -1476.7582 -39.766182
1492.29 -1473.7728 -42.30526
1492.2886 -1470.6652 -44.691341
1492.2872 -1467.4429 -46.918488
1492.2858 -1464.1143 -48.981148
1492.2845 -1460.6874 -50.874184
1492.2833 -1457.1708 -52.592876
1492.2821 -1453.5734 -54.132942
1492.281 -1449.9041 -55.49054
1492.28 -1446.1719 -56.662281
1492.2791 -1442.3862 -57.645245
1492.2781 -1438.5564 -58.436966
1492.2773 -1434.692 -59.035473
1492.2766 -1430.8026 -59.439259
1492.2759 -1426.8979 -59.647301
1492.2753 -1422.9874 -59.659061
1492.2748 -1419.0808 -59.474476
1492.2744 -1415.1875 -59.093945
1492.274 -1411.3165 -58.518272
1492.2738 -1407.4741 -57.748154
1492.2737 -1403.678 -56.787247
1492.2737 -1399.9377 -55.638
1492.2737 -1396.2611 -54.302933
1492.2738 -1392.6569 -52.785275
1492.274 -1389.1337 -51.088757
1492.2743 -1385.7001 -49.217579
1492.2747 -1382.3649 -47.176388
1492.2751 -1379.136 -44.970264
1492.2756 -1376.0216 -42.604698
1492.2762 -1373.0294 -40.085575
1492.277 -1370.167 -37.419178
1492.2777 -1367.4412 -34.612144
1492.2786 -1364.859 -31.671473
1492.2795 -1362.4268 -28.604488
1492.2805 -1360.1505 -25.418835
1492.2816 -1358.036 -22.122452
1492.2828 -1356.0884 -18.723549
1492.2841 -1354.3127 -15.230597
1492.2853 -1352.7131 -11.652297
1492.2866 -1351.2939 -7.9975572
1492.288 -1350.0585 -4.2754779
1492.2894 -1349.0099 -0.49532133
1492.2909 -1348.1506 3.3335104
1492.2925 -1347.4832 7.2015018
1492.2941 -1347.0089 11.099051
1492.2957 -1346.7292 15.016497
1492.2972 -1346.6447 18.944159
1492.299 -1346.7556 22.87237
1492.3007 -1347.0618 26.791555
1492.3024 -1347.5625 30.692381
1492.3041 -1348.2568 34.566509
1492.3058 -1349.1432 38.405056
1492.3076 -1350.2174 42.189548
1492.3093 -1351.4777 45.914021
1492.311 -1352.9208 49.569885
1492.3129 -1354.5435 53.148331
1492.3146 -1356.3416 56.640598
1492.3163 -1358.3107 60.038086
1492.318 -1360.4458 63.332386
1492.3197 -1362.7417 66.515343
1492.3213 -1365.1927 69.579048
1492.3229 -1367.7926 72.515892
1492.3245 -1370.535 75.318573
1492.326 -1373.4131 77.980118
1492.3275 -1376.4196 80.493896
1492.329 -1379.5471 82.853661
1492.3303 -1382.7877 85.053528
1492.3317 -1386.1335 87.088013
1492.333 -1389.576 88.952049
1492.3342 -1393.1068 90.640999
1492.3354 -1396.7169 92.150642
1492.3365 -1400.3976 93.477211
1492.3375 -1404.1394 94.617401
1492.3385 -1407.9331 95.568367
1492.3394 -1411.7694 96.327721
1492.3402 -1415.6387 96.893578
1492.3409 -1419.5312 97.264511
1492.3416 -1423.4376 97.439575
1492.342 -1427.3481 97.418312
1492.3425 -1431.2533 97.200737
1492.343 -1435.1434 96.787331
1492.3433 -1439.0098 96.17894
1490.0137 -1441.9133 97.289795
1490.0139 -1445.7993 96.340981
1490.0139 -1449.6285 95.199654
1490.0139 -1453.3944 93.868095
1490.0139 -1457.0878 92.349487
1490.0137 -1460.7 90.647575
1490.0134 -1464.2219 88.766563
1490.0131 -1467.6451 86.711113
1490.0126 -1470.9611 84.486351
1490.0121 -1474.1614 82.097809
1490.0114 -1477.2382 79.55143
1490.0107 -1480.184 76.853561
1490.0099 -1482.9912 74.010918
1490.009 -1485.6531 71.030594
1490.0081 -1488.1628 67.920006
1490.0071 -1490.5143 64.686913
1490.006 -1492.7017 61.339367
1490.0049 -1494.7194 57.885712
1490.0037 -1496.5624 54.334545
1490.0023 -1498.2262 50.694721
1490.001 -1499.7067 46.9753
1489.9995 -1501 43.185543
1489.9982 -1502.103 39.334881
1489.9966 -1503.0131 35.432896
1489.995 -1503.7277 31.489279
1489.9934 -1504.2452 27.51383
1489.9918 -1504.5643 23.516401
1489.9901 -1504.6842 19.50688
1489.9884 -1504.6045 15.495141
1489.9867 -1504.3253 11.490985
1489.985 -1503.8474 7.504005
1489.9832 -1503.1716 3.5430558
1489.9814 -1502.2992 -0.38431293
1489.9796 -1501.2344 -4.2582264
1489.9778 -1499.9792 -8.0722332
1489.9761 -1498.5367 -11.817692
1489.9742 -1496.9104 -15.48561
1489.9725 -1495.1042 -19.067024
1489.9707 -1493.1226 -22.55312
1489.969 -1490.9705 -25.93528
1489.9673 -1488.6533 -29.205124
1489.9656 -1486.1768 -32.354538
1489.964 -1483.547 -35.375698
1489.9623 -1480.7708 -38.261093
1489.9607 -1477.8547 -41.003544
1489.9592 -1474.8063 -43.59623
1489.9578 -1471.6329 -46.032688
1489.9563 -1468.3428 -48.306854
1489.955 -1464.9437 -50.413063
1489.9536 -1461.4446 -52.346066
1489.9523 -1457.8538 -54.101048
1489.9512 -1454.1804 -55.673626
1489.95 -1450.4336 -57.059887
1489.949 -1446.6227 -58.256367
1489.948 -1442.757 -59.260078
1489.947 -1438.8463 -60.06852
1489.9462 -1434.9004 -60.679661
1489.9454 -1430.929 -61.091972
1489.9448 -1426.9417 -61.304405
1489.9442 -1422.9486 -61.316414
1489.9437 -1418.9596 -61.127934
1489.9432 -1414.984 -60.739365
1489.9429 -1411.0314 -60.151539
1489.9427 -1407.1079 -59.365162
1489.9425 -1403.2316 -58.383968
1489.9425 -1399.4124 -57.210457
1489.9425 -1395.6582 -55.847206
1489.9426 -1391.9778 -54.297504
1489.9429 -1388.3801 -52.565166
1489.9431 -1384.8741 -50.654484
1489.9435 -1381.4684 -48.570202
1489.944 -1378.1714 -46.317501
1489.9445 -1374.9913 -43.901989
1489.9452 -1371.936 -41.329681
1489.9459 -1369.0131 -38.606991
1489.9467 -1366.2297 -35.740692
1489.9475 -1363.593 -32.737934
1489.9485 -1361.1094 -29.606199
1489.9496 -1358.7852 -26.353289
1489.9507 -1356.626 -22.98731
1489.9518 -1354.6372 -19.516649
1489.953 -1352.824 -15.949952
1489.9543 -1351.1908 -12.296103
1489.9557 -1349.7416 -8.5642033
1489.9572 -1348.48 -4.7635417
1489.9586 -1347.4092 -0.90357631
1489.9601 -1346.532 3.0060918
1489.9617 -1345.8503 6.9557467
1489.9633 -1345.3661 10.935582
1489.965 -1345.0804 14.935737
1489.9666 -1344.9941 18.94632
1489.9683 -1345.1074 22.957466
1489.97 -1345.42 26.959396
1489.9718 -1345.9313 30.942579
1489.9735 -1346.6403 34.898499
1489.9753 -1347.5453 38.818089
1489.9772 -1348.6422 42.68248
1489.9789 -1349.9291 46.485584
1489.9807 -1351.4027 50.218636
1489.9824 -1353.0597 53.872631
1489.9843 -1354.8958 57.438629
1489.986 -1356.9064 60.907845
1489.9877 -1359.0867 64.271698
1489.9894 -1361.431 67.521851
1489.9911 -1363.9337 70.650238
1489.9928 -1366.5886 73.649086
1489.9944 -1369.3889 76.510941
1489.996 -1372.3276 79.228676
1489.9974 -1375.3977 81.795532
1489.999 -1378.5912 84.205116
1490.0004 -1381.9003 86.451424
1490.0018 -1385.3167 88.52887
1490.0031 -1388.8319 90.432259
1490.0044 -1392.4373 92.156868
1490.0055 -1396.1235 93.69838
1490.0066 -1399.8818 95.052956
1490.0077 -1403.7026 96.217216
1490.0087 -1407.5765 97.188255
1490.0095 -1411.4938 97.963654
1490.0104 -1415.4447 98.541458
1490.0111 -1419.4196 98.920219
1490.0118 -1423.4084 99.098976
1490.0123 -1427.4015 99.077263
1490.0128 -1431.389 98.855095
1490.0133 -1435.3613 98.432961
1490.0135 -1439.3093 97.811729
1487.6381 -1442.2241 98.715881
1487.6383 -1446.1807 97.749825
1487.6383 -1450.0795 96.587753
1487.6383 -1453.9138 95.231987
1487.6383 -1457.6743 93.685783
1487.6381 -1461.3522 91.952927
1487.6378 -1464.9382 90.037727
1487.6375 -1468.4236 87.944916
1487.637 -1471.7997 85.679718
1487.6364 -1475.0582 83.247757
1487.6357 -1478.191 80.65509
1487.635 -1481.1903 77.90818
1487.6343 -1484.0486 75.01387
1487.6333 -1486.7588 71.97937
1487.6324 -1489.3142 68.812241
1487.6313 -1491.7085 65.520378
1487.6302 -1493.9355 62.111984
1487.629 -1495.9899 58.595551
1487.6278 -1497.8665 54.979839
1487.6265 -1499.5605 51.273853
1487.6251 -1501.0679 47.486824
1487.6237 -1502.3848 43.628178
1487.6222 -1503.5078 39.707523
1487.6207 -1504.4343 35.734612
1487.6191 -1505.162 31.719313
1487.6174 -1505.689 27.6716
1487.6158 -1506.0138 23.601511
1487.6141 -1506.1359 19.519108
1487.6123 -1506.0547 15.434448
1487.6106 -1505.7705 11.357508
1487.6089 -1505.2838 7.2980566
1487.6071 -1504.5958 3.2651091
1487.6052 -1503.7075 -0.73364753
1487.6034 -1502.6234 -4.6779771
1487.6016 -1501.3455 -8.5613108
1487.5997 -1499.8767 -12.374852
1487.5979 -1498.2208 -16.109442
1487.5962 -1496.3817 -19.755955
1487.5944 -1494.3641 -23.305418
1487.5925 -1492.1729 -26.749056
1487.5908 -1489.8136 -30.078335
1487.5891 -1487.292 -33.284996
1487.5874 -1484.6145 -36.361073
1487.5858 -1481.7877 -39.298916
1487.5842 -1478.8187 -42.091217
1487.5826 -1475.7148 -44.731026
1487.5811 -1472.4839 -47.211773
1487.5796 -1469.1338 -49.527279
1487.5782 -1465.6731 -51.671772
1487.5769 -1462.1102 -53.639912
1487.5756 -1458.4542 -55.426792
1487.5743 -1454.7141 -57.027958
1487.5732 -1450.8992 -58.439415
1487.5721 -1447.0189 -59.657642
1487.5712 -1443.083 -60.6796
1487.5702 -1439.1013 -61.502735
1487.5693 -1435.0836 -62.124985
1487.5686 -1431.0399 -62.544792
1487.5679 -1426.9802 -62.761086
1487.5673 -1422.9147 -62.773315
1487.5668 -1418.853 -62.581406
1487.5664 -1414.8052 -62.185776
1487.566 -1410.7808 -61.587265
1487.5658 -1406.7859 -60.786591
1487.5657 -1402.8392 -59.787563
1487.5656 -1398.9506 -58.592724
1487.5656 -1395.1281 -57.204689
1487.5657 -1391.3807 -55.62682
1487.5659 -1387.7178 -53.862995
1487.5662 -1384.1481 -51.91758
1487.5667 -1380.6804 -49.79541
1487.567 -1377.3235 -47.501762
1487.5676 -1374.0856 -45.042343
1487.5682 -1370.9747 -42.423283
1487.569 -1367.9987 -39.6511
1487.5698 -1365.1647 -36.7327
1487.5707 -1362.4801 -33.675362
1487.5717 -1359.9513 -30.486702
1487.5728 -1357.5848 -27.174664
1487.5739 -1355.3864 -23.747499
1487.5751 -1353.3616 -20.213753
1487.5763 -1351.5154 -16.582224
1487.5776 -1349.8524 -12.861959
1487.579 -1348.3768 -9.0622244
1487.5804 -1347.0923 -5.1924777
1487.5819 -1346.0021 -1.2623496
1487.5835 -1345.1089 2.7183847
1487.5851 -1344.4149 6.7398324
1487.5868 -1343.9219 10.79201
1487.5884 -1343.631 14.864875
1487.5901 -1343.5431 18.948359
1487.5918 -1343.6584 23.032415
1487.5936 -1343.9768 27.107088
1487.5955 -1344.4973 31.162674
1487.5972 -1345.2192 35.190502
1487.599 -1346.1407 39.181339
1487.6008 -1347.2576 43.115971
1487.6027 -1348.5677 46.988205
1487.6045 -1350.0682 50.789112
1487.6063 -1351.7552 54.509525
1487.608 -1353.6248 58.140343
1487.6099 -1355.6719 61.672619
1487.6117 -1357.8917 65.097618
1487.6134 -1360.2788 68.406853
1487.6151 -1362.827 71.592102
1487.6168 -1365.53 74.645462
1487.6184 -1368.3813 77.559334
1487.62 -1371.3735 80.326469
1487.6216 -1374.4993 82.939987
1487.623 -1377.7509 85.393364
1487.6245 -1381.1201 87.680511
1487.626 -1384.5986 89.795708
1487.6273 -1388.1777 91.733704
1487.6285 -1391.8486 93.489655
1487.6298 -1395.6019 95.059189
1487.6309 -1399.4286 96.438385
1487.632 -1403.3188 97.62381
1487.6329 -1407.2631 98.612503
1487.6339 -1411.2516 99.401993
1487.6348 -1415.2743 99.990295
1487.6355 -1419.3214 100.37595
1487.6361 -1423.3828 100.55795
1487.6367 -1427.4484 100.53584
1487.6372 -1431.5084 100.30964
1487.6376 -1435.5529 99.879829
1487.6379 -1439.5726 99.247307
1485.2225 -1442.4913 99.942505
1485.2227 -1446.5087 98.961617
1485.2228 -1450.4674 97.781708
1485.2228 -1454.3605 96.405121
1485.2227 -1458.1788 94.835175
1485.2224 -1461.9131 93.075722
1485.2222 -1465.5542 91.131111
1485.2218 -1469.0931 89.006172
1485.2213 -1472.5211 86.706192
1485.2207 -1475.8296 84.236885
1485.2201 -1479.0105 81.604416
1485.2194 -1482.0558 78.815331
1485.2186 -1484.958 75.876587
1485.2177 -1487.7098 72.795494
1485.2167 -1490.3044 69.579742
1485.2157 -1492.7355 66.237335
1485.2145 -1494.9967 62.776611
1485.2134 -1497.0826 59.206188
1485.212 -1498.988 55.534958
1485.2107 -1500.7081 51.772072
1485.2094 -1502.2386 47.926899
1485.2079 -1503.5757 44.009014
1485.2064 -1504.7161 40.02816
1485.2048 -1505.6567 35.994247
1485.2032 -1506.3956 31.917303
1485.2015 -1506.9305 27.807444
1485.1998 -1507.2605 23.674864
1485.1981 -1507.3844 19.529781
1485.1964 -1507.302 15.382407
1485.1946 -1507.0134 11.242872
1485.1927 -1506.5193 7.1210938
1485.1909 -1505.8207 3.0262263
1485.1891 -1504.9187 -1.0339255
1485.1873 -1503.818 -5.0388145
1485.1854 -1502.5205 -8.9817715
1485.1836 -1501.0292 -12.853864
1485.1818 -1499.3478 -16.645792
1485.1799 -1497.4805 -20.348293
1485.1781 -1495.4319 -23.952251
1485.1763 -1493.207 -27.448761
1485.1746 -1490.8115 -30.829159
1485.1727 -1488.2512 -34.085052
1485.171 -1485.5326 -37.208359
1485.1693 -1482.6625 -40.191307
1485.1677 -1479.6478 -43.026482
1485.1661 -1476.4963 -45.706821
1485.1646 -1473.2157 -48.225655
1485.1631 -1469.8142 -50.57671
1485.1617 -1466.3004 -52.754131
1485.1603 -1462.6829 -54.752487
1485.1591 -1458.9707 -56.566803
1485.1578 -1455.1731 -58.192551
1485.1566 -1451.2996 -59.625679
1485.1555 -1447.3599 -60.862614
1485.1545 -1443.3635 -61.900261
1485.1536 -1439.3207 -62.736034
1485.1527 -1435.2412 -63.36784
1485.1519 -1431.1355 -63.79409
1485.1512 -1427.0134 -64.01371
1485.1506 -1422.8854 -64.026123
1485.1501 -1418.7615 -63.831264
1485.1497 -1414.6515 -63.429562
1485.1493 -1410.5652 -62.821861
1485.149 -1406.5092 -62.008896
1485.1489 -1402.5017 -60.994526
1485.1488 -1398.5535 -59.781342
1485.1489 -1394.6722 -58.371998
1485.149 -1390.8674 -56.769901
1485.1492 -1387.1482 -54.978996
1485.1495 -1383.5237 -53.003716
1485.1499 -1380.0028 -50.848961
1485.1504 -1376.5942 -48.520096
1485.151 -1373.3066 -46.022919
1485.1516 -1370.1481 -43.363644
1485.1523 -1367.1262 -40.548897
1485.1532 -1364.2488 -37.585693
1485.1541 -1361.5229 -34.481411
1485.155 -1358.9554 -31.243793
1485.1561 -1356.5525 -27.880903
1485.1572 -1354.3203 -24.401123
1485.1584 -1352.2644 -20.81312
1485.1598 -1350.3899 -17.125834
1485.1611 -1348.7014 -13.34845
1485.1625 -1347.2032 -9.4903755
1485.1639 -1345.899 -5.5612144
1485.1655 -1344.792 -1.570745
1485.1671 -1343.8851 2.4711077
1485.1687 -1343.1804 6.5542989
1485.1703 -1342.6798 10.668692
1485.172 -1342.3845 14.80409
1485.1738 -1342.2953 18.95027
1485.1755 -1342.4124 23.097031
1485.1774 -1342.7356 27.234264
1485.1791 -1343.2642 31.352118
1485.1809 -1343.9971 35.441788
1485.1829 -1344.9327 39.493896
1485.1847 -1346.0668 43.488941
1485.1865 -1347.3971 47.420628
1485.1884 -1348.9207 51.279892
1485.1902 -1350.6335 55.057426
1485.192 -1352.5316 58.743992
1485.1938 -1354.6102 62.330498
1485.1957 -1356.8643 65.808083
1485.1974 -1359.2878 69.168121
1485.1991 -1361.8752 72.402283
1485.2008 -1364.6199 75.502518
1485.2025 -1367.5148 78.461128
1485.2041 -1370.553 81.270752
1485.2057 -1373.7268 83.924393
1485.2073 -1377.0282 86.415443
1485.2087 -1380.4492 88.737701
1485.2102 -1383.9812 90.885376
1485.2115 -1387.6152 92.853127
1485.2128 -1391.3424 94.63604
1485.214 -1395.1534 96.229668
1485.2152 -1399.0387 97.630043
1485.2163 -1402.9888 98.833672
1485.2173 -1406.9935 99.83754
1485.2183 -1411.0433 100.63915
1485.219 -1415.1278 101.23649
1485.2198 -1419.2371 101.62805
1485.2205 -1423.3607 101.81286
1485.2211 -1427.4888 101.79041
1485.2216 -1431.6111 101.56074
1485.222 -1435.7178 101.12432
1485.2223 -1439.7992 100.48209
1482.7729 -1442.7145 100.9666
1482.7731 -1446.7825 99.973328
1482.7732 -1450.7913 98.778526
1482.7732 -1454.7335 97.384567
1482.7731 -1458.6 95.7948
1482.7728 -1462.3815 94.013138
1482.7726 -1466.0685 92.043983
1482.7722 -1469.652 89.89222
1482.7717 -1473.1233 87.56321
1482.7711 -1476.4735 85.062744
1482.7705 -1479.6946 82.397041
1482.7698 -1482.7783 79.572754
1482.7689 -1485.7172 76.596909
1482.7681 -1488.5038 73.476929
1482.7671 -1491.1312 70.220581
1482.766 -1493.5929 66.835991
1482.7649 -1495.8827 63.331581
1482.7637 -1497.9949 59.716091
1482.7623 -1499.9243 55.998524
1482.761 -1501.6661 52.188141
1482.7596 -1503.2159 48.294434
1482.7581 -1504.5698 44.327091
1482.7566 -1505.7246 40.295994
1482.755 -1506.6772 36.211163
1482.7534 -1507.4254 32.082756
1482.7517 -1507.9672 27.921021
1482.75 -1508.3011 23.736277
1482.7483 -1508.4266 19.538874
1482.7465 -1508.3431 15.339149
1482.7446 -1508.051 11.147364
1482.7428 -1507.5507 6.9735584
1482.741 -1506.8433 2.8270037
1482.7391 -1505.9298 -1.2843969
1482.7372 -1504.8152 -5.3398376
1482.7354 -1503.5013 -9.3325634
1482.7335 -1501.9912 -13.253531
1482.7316 -1500.2887 -17.093323
1482.7297 -1498.3978 -20.842558
1482.7279 -1496.3232 -24.492008
1482.7261 -1494.0703 -28.032652
1482.7244 -1491.6445 -31.455717
1482.7225 -1489.052 -34.752708
1482.7208 -1486.2991 -37.91544
1482.7191 -1483.3927 -40.936039
1482.7175 -1480.34 -43.806999
1482.7158 -1477.1487 -46.521172
1482.7144 -1473.8267 -49.0718
1482.7128 -1470.3823 -51.452534
1482.7113 -1466.8241 -53.657436
1482.71 -1463.1609 -55.681019
1482.7086 -1459.4019 -57.518234
1482.7074 -1455.5564 -59.164501
1482.7062 -1451.6339 -60.615719
1482.7051 -1447.6444 -61.868267
1482.7041 -1443.5977 -62.919014
1482.7031 -1439.5038 -63.765335
1482.7023 -1435.3729 -64.405113
1482.7014 -1431.2153 -64.836746
1482.7007 -1427.0413 -65.059135
1482.7001 -1422.8611 -65.071709
1482.6996 -1418.6851 -64.87439
1482.6992 -1414.5233 -64.467613
1482.6989 -1410.3854 -63.852245
1482.6986 -1406.2781 -63.029018
1482.6984 -1402.2201 -62.001846
1482.6984 -1398.2219 -60.77335
1482.6984 -1394.2917 -59.346214
1482.6985 -1390.439 -57.723896
1482.6987 -1386.6727 -55.910385
1482.699 -1383.0024 -53.910168
1482.6995 -1379.4371 -51.728218
1482.7 -1375.9857 -49.369957
1482.7004 -1372.6565 -46.841259
1482.7012 -1369.458 -44.148418
1482.7019 -1366.3981 -41.298141
1482.7028 -1363.4844 -38.297535
1482.7036 -1360.7241 -35.154072
1482.7046 -1358.1241 -31.875587
1482.7057 -1355.6909 -28.470249
1482.7069 -1353.4305 -24.946545
1482.7081 -1351.3488 -21.313251
1482.7094 -1349.4506 -17.579424
1482.7108 -1347.7407 -13.75436
1482.7122 -1346.2236 -9.8475876
1482.7136 -1344.903 -5.8688312
1482.7152 -1343.782 -1.8279923
1482.7168 -1342.8636 2.2648783
1482.7184 -1342.15 6.3996091
1482.7201 -1341.6431 10.565936
1482.7218 -1341.3441 14.753532
1482.7236 -1341.2538 18.952047
1482.7253 -1341.3723 23.15115
1482.7272 -1341.6996 27.340607
1482.729 -1342.2349 31.510435
1482.7308 -1342.9771 35.651726
1482.7328 -1343.9244 39.754986
1482.7346 -1345.0729 43.800453
1482.7365 -1346.4199 47.781769
1482.7384 -1347.9626 51.689747
1482.7402 -1349.6973 55.514965
1482.7421 -1351.6193 59.248062
1482.7439 -1353.7241 62.879841
1482.7457 -1356.0066 66.401321
1482.7476 -1358.4608 69.803772
1482.7493 -1361.0808 73.078751
1482.751 -1363.8601 76.218124
1482.7527 -1366.7916 79.214081
1482.7543 -1369.868 82.059166
1482.756 -1373.0819 84.7463
1482.7574 -1376.425 87.268791
1482.759 -1379.8893 89.620361
1482.7604 -1383.4658 91.795151
1482.7618 -1387.1458 93.787735
1482.7631 -1390.9199 95.593155
1482.7644 -1394.7791 97.206902
1482.7655 -1398.7134 98.624947
1482.7666 -1402.7133 99.843765
1482.7676 -1406.7687 100.86031
1482.7686 -1410.8695 101.67204
1482.7694 -1415.0056 102.27692
1482.7703 -1419.1666 102.67342
1482.7709 -1423.3424 102.86057
1482.7715 -1427.5226 102.83783
1482.772 -1431.697 102.60526
1482.7725 -1435.8553 102.16334
1482.7727 -1439.9884 101.51299
1480.2955 -1442.8929 101.78561
1480.2957 -1447.0016 100.78244
1480.2958 -1451.0502 99.575729
1480.2958 -1455.0317 98.167877
1480.2957 -1458.9368 96.562271
1480.2954 -1462.7559 94.762848
1480.2952 -1466.4797 92.774063
1480.2947 -1470.099 90.600861
1480.2943 -1473.6049 88.248634
1480.2937 -1476.9885 85.723251
1480.2931 -1480.2416 83.030983
1480.2922 -1483.3561 80.178543
1480.2915 -1486.3242 77.173042
1480.2905 -1489.1385 74.021973
1480.2896 -1491.7922 70.73317
1480.2885 -1494.2784 67.31485
1480.2874 -1496.5911 63.775517
1480.2861 -1498.7244 60.123989
1480.2848 -1500.673 56.369373
1480.2834 -1502.4321 52.521015
1480.282 -1503.9973 48.588501
1480.2805 -1505.3649 44.581623
1480.2789 -1506.531 40.510349
1480.2773 -1507.4932 36.384808
1480.2758 -1508.2488 32.215256
1480.274 -1508.7959 28.012047
1480.2723 -1509.1333 23.785597
1480.2705 -1509.26 19.546362
1480.2688 -1509.1758 15.304783
1480.267 -1508.8806 11.071221
1480.265 -1508.3754 6.8558192
1480.2632 -1507.6608 2.6679394
1480.2614 -1506.7384 -1.4844359
1480.2594 -1505.6127 -5.5802937
1480.2576 -1504.2856 -9.612812
1480.2556 -1502.7605 -13.572856
1480.2538 -1501.0409 -17.450916
1480.252 -1499.1312 -21.237516
1480.25 -1497.036 -24.923338
1480.2482 -1494.7606 -28.499268
1480.2463 -1492.3107 -31.956448
1480.2446 -1489.6923 -35.286297
1480.2428 -1486.912 -38.480545
1480.2411 -1483.9766 -41.53125
1480.2395 -1480.8934 -44.430824
1480.2378 -1477.6704 -47.172047
1480.2362 -1474.3153 -49.748096
1480.2347 -1470.8365 -52.152554
1480.2333 -1467.2428 -54.379433
1480.2319 -1463.5431 -56.42318
1480.2306 -1459.7467 -58.278706
1480.2292 -1455.8628 -59.941383
1480.228 -1451.9014 -61.407063
1480.2269 -1447.8721 -62.672092
1480.226 -1443.7849 -63.733311
1480.225 -1439.6503 -64.588066
1480.2241 -1435.4783 -65.234222
1480.2233 -1431.2792 -65.670151
1480.2225 -1427.0636 -65.89476
1480.2219 -1422.8418 -65.907455
1480.2214 -1418.6241 -65.708176
1480.2209 -1414.4208 -65.297348
1480.2206 -1410.2417 -64.675842
1480.2203 -1406.0935 -63.844414
1480.2202 -1401.9951 -62.807003
1480.2201 -1397.957 -61.566261
1480.2202 -1393.9877 -60.124905
1480.2203 -1390.0964 -58.48642
1480.2205 -1386.2927 -56.654835
1480.2208 -1382.5858 -54.634686
1480.2212 -1378.985 -52.430988
1480.2217 -1375.4991 -50.049225
1480.2223 -1372.1368 -47.495323
1480.223 -1368.9065 -44.775646
1480.2238 -1365.816 -41.896965
1480.2246 -1362.8733 -38.866451
1480.2255 -1360.0854 -35.691662
1480.2266 -1357.4596 -32.380501
1480.2277 -1355.0022 -28.941225
1480.2288 -1352.7192 -25.382402
1480.23 -1350.6167 -21.7129
1480.2313 -1348.6996 -17.94186
1480.2327 -1346.9727 -14.078677
1480.2341 -1345.4404 -10.132969
1480.2356 -1344.1066 -6.1145592
1480.2372 -1342.9745 -2.0334489
1480.2388 -1342.047 2.1002119
1480.2405 -1341.3263 6.2761497
1480.2422 -1340.8143 10.483998
1480.2439 -1340.5123 14.713329
1480.2456 -1340.421 18.953688
1480.2474 -1340.5409 23.194639
1480.2493 -1340.8713 27.425848
1480.2511 -1341.412 31.637234
1480.2531 -1342.1615 35.819798
1480.2549 -1343.1184 39.963947
1480.2567 -1344.2782 44.049736
1480.2587 -1345.6388 48.070728
1480.2605 -1347.1969 52.017654
1480.2625 -1348.9487 55.880993
1480.2643 -1350.8899 59.651295
1480.2661 -1353.0157 63.319271
1480.2679 -1355.3209 66.875847
1480.2698 -1357.7997 70.31221
1480.2716 -1360.4458 73.619827
1480.2733 -1363.2527 76.790482
1480.275 -1366.2134 79.816299
1480.2767 -1369.3206 82.689735
1480.2783 -1372.5665 85.403656
1480.2799 -1375.943 87.951286
1480.2814 -1379.4417 90.326294
1480.2828 -1383.0538 92.522751
1480.2842 -1386.7704 94.535194
1480.2855 -1390.5823 96.358604
1480.2869 -1394.4799 97.988434
1480.288 -1398.4534 99.420624
1480.2891 -1402.4932 100.65159
1480.2902 -1406.5889 101.67826
1480.2911 -1410.7306 102.49808
1480.292 -1414.908 103.10899
1480.2927 -1419.1105 103.50945
1480.2935 -1423.3279 103.69845
1480.2941 -1427.5497 103.67549
1480.2946 -1431.7656 103.4406
1480.2949 -1435.9656 102.99427
1480.2953 -1440.1398 102.33745
1477.7963 -1443.0264 102.39748
1477.7965 -1447.1652 101.38692
1477.7965 -1451.2438 100.17132
1477.7965 -1455.2546 98.75309
1477.7964 -1459.1885 97.135651
1477.7963 -1463.0356 95.322968
1477.7959 -1466.7869 93.319534
1477.7955 -1470.4329 91.130318
1477.795 -1473.9645 88.760757
1477.7946 -1477.3732 86.216759
1477.7938 -1480.6503 83.504654
1477.7931 -1483.7877 80.631203
1477.7922 -1486.7777 77.603554
1477.7914 -1489.6128 74.42926
1477.7903 -1492.2859 71.116226
1477.7892 -1494.7904 67.672714
1477.7881 -1497.1201 64.1073
1477.7869 -1499.2692 60.428867
1477.7855 -1501.2322 56.646584
1477.7842 -1503.0043 52.769867
1477.7827 -1504.5811 48.808376
1477.7812 -1505.9585 44.771969
1477.7797 -1507.1334 40.670696
1477.7781 -1508.1025 36.514755
1477.7764 -1508.8638 32.314476
1477.7747 -1509.4149 28.080294
1477.7729 -1509.7549 23.822701
1477.7712 -1509.8824 19.552227
1477.7694 -1509.7976 15.279393
1477.7676 -1509.5002 11.014634
1477.7656 -1508.9912 6.7681699
1477.7638 -1508.2715 2.5494306
1477.7618 -1507.3423 -1.6335431
1477.76 -1506.2081 -5.7595825
1477.7581 -1504.8715 -9.8218155
1477.7562 -1503.3351 -13.811041
1477.7543 -1501.6028 -17.717678
1477.7524 -1499.679 -21.532181
1477.7505 -1497.5684 -25.245163
1477.7487 -1495.2762 -28.847443
1477.7468 -1492.8082 -32.330097
1477.745 -1490.1705 -35.684486
1477.7433 -1487.3698 -38.902271
1477.7416 -1484.4127 -41.975456
1477.7399 -1481.3069 -44.896397
1477.7383 -1478.0601 -47.657818
1477.7367 -1474.6802 -50.25285
1477.7351 -1471.1758 -52.675026
1477.7336 -1467.5557 -54.918312
1477.7323 -1463.8287 -56.977123
1477.7308 -1460.0043 -58.846321
1477.7296 -1456.0918 -60.521248
1477.7284 -1452.1011 -61.99773
1477.7273 -1448.0421 -63.272079
1477.7262 -1443.9249 -64.341118
1477.7252 -1439.7598 -65.202171
1477.7244 -1435.557 -65.853088
1477.7236 -1431.327 -66.292236
1477.7229 -1427.0803 -66.518501
1477.7223 -1422.8274 -66.531288
1477.7217 -1418.5786 -66.330536
1477.7212 -1414.3444 -65.916679
1477.7209 -1410.1345 -65.290596
1477.7207 -1405.9557 -64.453041
1477.7205 -1401.8271 -63.407986
1477.7205 -1397.7593 -62.158104
1477.7205 -1393.7607 -60.706127
1477.7206 -1389.8408 -59.055565
1477.7208 -1386.009 -57.210484
1477.7211 -1382.2749 -55.175446
1477.7214 -1378.6475 -52.955513
1477.722 -1375.1359 -50.556198
1477.7225 -1371.7488 -47.983479
1477.7233 -1368.4946 -45.243759
1477.724 -1365.3815 -42.343864
1477.7249 -1362.417 -39.291023
1477.7258 -1359.6086 -36.092834
1477.7268 -1356.9634 -32.757278
1477.7279 -1354.4879 -29.292658
1477.7291 -1352.1882 -25.707611
1477.7303 -1350.0701 -22.011068
1477.7317 -1348.1388 -18.21224
1477.733 -1346.3993 -14.320589
1477.7345 -1344.8557 -10.345805
1477.736 -1343.5121 -6.2977848
1477.7375 -1342.3716 -2.1866016
1477.7391 -1341.4373 1.9775194
1477.7408 -1340.7113 6.1842294
1477.7426 -1340.1956 10.423085
1477.7443 -1339.8912 14.68358
1477.7461 -1339.7993 18.955185
1477.7479 -1339.92 23.227388
1477.7498 -1340.2529 27.489777
1477.7516 -1340.7975 31.732195
1477.7535 -1341.5526 35.94558
1477.7554 -1342.5166 40.12027
1477.7573 -1343.6849 44.236164
1477.7592 -1345.0555 48.286785
1477.7611 -1346.6251 52.262794
1477.7631 -1348.3898 56.154606
1477.7649 -1350.3453 59.95269
1477.7667 -1352.4869 63.64769
1477.7686 -1354.809 67.230476
1477.7704 -1357.306 70.692162
1477.7722 -1359.9716 74.024155
1477.7739 -1362.7992 77.21817
1477.7758 -1365.7817 80.266281
1477.7773 -1368.9119 83.160896
1477.7791 -1372.1816 85.894814
1477.7806 -1375.583 88.46122
1477.7821 -1379.1074 90.853722
1477.7836 -1382.7462 93.066368
1477.7849 -1386.4902 95.093643
1477.7863 -1390.3302 96.930489
1477.7876 -1394.2565 98.572327
1477.7888 -1398.2593 100.01507
1477.7899 -1402.3289 101.2551
1477.7909 -1406.4548 102.28934
1477.7919 -1410.627 103.1152
1477.7927 -1414.8351 103.73061
1477.7936 -1419.0686 104.13402
1477.7942 -1423.317 104.32442
1477.7948 -1427.5701 104.30129
1477.7954 -1431.817 104.06467
1477.7958 -1436.0479 103.61505
1477.7961 -1440.2528 102.95338
1475.2816 -1443.1144 102.8007
1475.2817 -1447.2731 101.78526
1475.2819 -1451.3712 100.5638
1475.2819 -1455.4015 99.138748
1475.2817 -1459.3542 97.513519
1475.2815 -1463.22 95.692116
1475.2812 -1466.9893 93.679031
1475.2809 -1470.6528 91.479263
1475.2804 -1474.2014 89.098297
1475.2798 -1477.6265 86.542046
1475.2791 -1480.9194 83.816879
1475.2783 -1484.0719 80.929588
1475.2775 -1487.0763 77.88736
1475.2766 -1489.925 74.697777
1475.2755 -1492.6111 71.36879
1475.2745 -1495.1277 67.908691
1475.2733 -1497.4686 64.326103
1475.2721 -1499.6279 60.629959
1475.2708 -1501.6003 56.829456
1475.2694 -1503.381 52.934071
1475.2679 -1504.9655 48.953503
1475.2665 -1506.3496 44.897655
1475.2649 -1507.53 40.77663
1475.2633 -1508.5039 36.600674
1475.2616 -1509.2688 32.380169
1475.2599 -1509.8226 28.125593
1475.2582 -1510.1642 23.847496
1475.2563 -1510.2924 19.556456
1475.2545 -1510.207 15.263043
1475.2527 -1509.9083 10.977746
1475.2509 -1509.3969 6.7108302
1475.2489 -1508.6736 2.4717731
1475.2469 -1507.7399 -1.7313459
1475.2451 -1506.6005 -5.8772564
1475.2432 -1505.2572 -9.959053
1475.2412 -1503.7134 -13.96749
1475.2394 -1501.9729 -17.892942
1475.2374 -1500.0398 -21.725817
1475.2356 -1497.9191 -25.456678
1475.2338 -1495.6158 -29.076309
1475.2319 -1493.136 -32.575737
1475.2301 -1490.4856 -35.946278
1475.2283 -1487.6713 -39.179562
1475.2266 -1484.7 -42.267548
1475.2249 -1481.5792 -45.202553
1475.2233 -1478.3167 -47.977276
1475.2217 -1474.9207 -50.584805
1475.2201 -1471.3994 -53.018646
1475.2186 -1467.7617 -55.272736
1475.2172 -1464.0168 -57.341461
1475.2158 -1460.174 -59.219662
1475.2146 -1456.2427 -60.902657
1475.2134 -1452.2328 -62.38625
1475.2123 -1448.1542 -63.666737
1475.2112 -1444.0172 -64.740921
1475.2102 -1439.832 -65.606125
1475.2094 -1435.609 -66.260178
1475.2085 -1431.3586 -66.701439
1475.2078 -1427.0914 -66.928787
1475.2072 -1422.818 -66.941643
1475.2067 -1418.5488 -66.739922
1475.2062 -1414.2942 -66.324074
1475.2058 -1410.064 -65.694977
1475.2056 -1405.8651 -64.853386
1475.2054 -1401.7167 -63.803295
1475.2053 -1397.6293 -62.547394
1475.2053 -1393.6115 -61.088425
1475.2054 -1389.6726 -59.429913
1475.2057 -1385.8224 -57.575943
1475.2061 -1382.0702 -55.531109
1475.2064 -1378.4254 -53.300484
1475.2069 -1374.8969 -50.889614
1475.2075 -1371.4935 -48.304504
1475.2081 -1368.2236 -45.55159
1475.209 -1365.0955 -42.63773
1475.2098 -1362.1167 -39.570183
1475.2107 -1359.2949 -36.356594
1475.2118 -1356.6368 -33.004971
1475.2129 -1354.1494 -29.523666
1475.2141 -1351.8386 -25.921354
1475.2153 -1349.7103 -22.20701
1475.2167 -1347.7698 -18.389887
1475.218 -1346.0219 -14.479493
1475.2195 -1344.4709 -10.485566
1475.2209 -1343.1207 -6.4180508
1475.2225 -1341.9749 -2.2870679
1475.2242 -1341.0359 1.8971076
1475.2258 -1340.3064 6.1240773
1475.2275 -1339.7882 10.383348
1475.2294 -1339.4825 14.664361
1475.2311 -1339.3901 18.956537
1475.2329 -1339.5114 23.249315
1475.2349 -1339.8459 27.53223
1475.2367 -1340.3932 31.795082
1475.2385 -1341.1519 36.028759
1475.2405 -1342.1205 40.223553
1475.2424 -1343.2944 44.359272
1475.2443 -1344.6716 48.429401
1475.2462 -1346.2488 52.424557
1475.2482 -1348.022 56.33511
1475.25 -1349.9869 60.151485
1475.252 -1352.1388 63.864285
1475.2538 -1354.472 67.464325
1475.2556 -1356.9811 70.94268
1475.2573 -1359.6595 74.290718
1475.2592 -1362.5007 77.500122
1475.2609 -1365.4977 80.562912
1475.2626 -1368.6428 83.471466
1475.2642 -1371.9283 86.218544
1475.2657 -1375.3462 88.79731
1475.2673 -1378.8876 91.20134
1475.2688 -1382.5438 93.424644
1475.2701 -1386.3059 95.461678
1475.2715 -1390.1643 97.307373
1475.2728 -1394.1095 98.957123
1475.274 -1398.1317 100.40681
1475.2751 -1402.2207 101.65282
1475.2761 -1406.3666 102.69203
1475.2771 -1410.559 103.52187
1475.278 -1414.7872 104.14024
1475.2788 -1419.0411 104.54559
1475.2795 -1423.3101 104.73691
1475.2802 -1427.5835 104.71367
1475.2806 -1431.851 104.47591
1475.281 -1436.1022 104.02412
1475.2814 -1440.3274 103.35928
1472.7573 -1443.1566 102.99424
1472.7576 -1447.325 101.97648
1472.7577 -1451.4325 100.75222
1472.7576 -1455.4719 99.323898
1472.7576 -1459.4337 97.694939
1472.7573 -1463.3083 95.869347
1472.757 -1467.0863 93.851646
1472.7566 -1470.7583 91.646835
1472.7561 -1474.3151 89.260406
1472.7556 -1477.7479 86.698296
1472.7549 -1481.0483 83.966873
1472.7542 -1484.2081 81.07296
1472.7533 -1487.2195 78.02375
1472.7523 -1490.0747 74.826851
1472.7513 -1492.767 71.490227
1472.7502 -1495.2893 68.022194
1472.7491 -1497.6355 64.431389
1472.7478 -1499.7999 60.726761
1472.7466 -1501.7769 56.917542
1472.7451 -1503.5615 53.013222
1472.7437 -1505.1495 49.023518
1472.7422 -1506.537 44.95837
1472.7406 -1507.7201 40.827888
1472.739 -1508.6963 36.642357
1472.7373 -1509.4628 32.412167
1472.7356 -1510.0179 28.147831
1472.7339 -1510.3602 23.859921
1472.7321 -1510.4888 19.559036
1472.7302 -1510.4033 15.255774
1472.7284 -1510.1039 10.960647
1472.7266 -1509.5912 6.6839428
1472.7246 -1508.8663 2.4351611
1472.7228 -1507.9304 -1.7775998
1472.7208 -1506.7883 -5.9330211
1472.7189 -1505.442 -10.024181
1472.7169 -1503.8948 -14.041815
1472.7151 -1502.1501 -17.976271
1472.7131 -1500.2126 -21.817938
1472.7113 -1498.087 -25.55736
1472.7094 -1495.7786 -29.185291
1472.7075 -1493.293 -32.692749
1472.7058 -1490.6365 -36.071022
1472.704 -1487.8157 -39.311722
1472.7023 -1484.8376 -42.406792
1472.7006 -1481.7097 -45.34853
1472.6989 -1478.4397 -48.12962
1472.6973 -1475.0359 -50.74313
1472.6958 -1471.5065 -53.182552
1472.6943 -1467.8606 -55.441814
1472.6929 -1464.1071 -57.515285
1472.6915 -1460.2554 -59.397793
1472.6902 -1456.3151 -61.084652
1472.689 -1452.296 -62.571644
1472.6879 -1448.2081 -63.855072
1472.6868 -1444.0615 -64.931725
1472.6858 -1439.8667 -65.798912
1472.6849 -1435.634 -66.45446
1472.6841 -1431.3739 -66.896729
1472.6833 -1427.097 -67.124603
1472.6827 -1422.8137 -67.137489
1472.6823 -1418.5348 -66.93531
1472.6818 -1414.2704 -66.518501
1472.6814 -1410.0305 -65.887962
1472.6812 -1405.8219 -65.044441
1472.681 -1401.6639 -63.991943
1472.6809 -1397.5671 -62.733158
1472.681 -1393.5402 -61.270844
1472.6812 -1389.5923 -59.608528
1472.6813 -1385.7333 -57.750305
1472.6816 -1381.9725 -55.700779
1472.682 -1378.3193 -53.465034
1472.6825 -1374.7827 -51.048637
1472.6831 -1371.3715 -48.457596
1472.6838 -1368.0941 -45.698368
1472.6846 -1364.9587 -42.777824
1472.6854 -1361.9733 -39.703239
1472.6864 -1359.1449 -36.482281
1472.6874 -1356.4808 -33.122967
1472.6885 -1353.9877 -29.633677
1472.6897 -1351.6715 -26.0231
1472.6909 -1349.5383 -22.300236
1472.6923 -1347.5934 -18.474356
1472.6937 -1345.8414 -14.554991
1472.6952 -1344.2869 -10.551903
1472.6967 -1342.9336 -6.4750562
1472.6982 -1341.785 -2.3345969
1472.6998 -1340.844 1.8591774
1472.7015 -1340.1129 6.0958438
1472.7032 -1339.5935 10.364884
1472.705 -1339.2871 14.65572
1472.7068 -1339.1945 18.957743
1472.7086 -1339.316 23.260368
1472.7104 -1339.6514 27.553108
1472.7124 -1340.1998 31.825739
1472.7142 -1340.9602 36.069126
1472.7162 -1341.9312 40.273544
1472.7181 -1343.1078 44.418751
1472.72 -1344.488 48.498215
1472.7219 -1346.0688 52.502537
1472.7239 -1347.8462 56.422062
1472.7257 -1349.8157 60.247192
1472.7277 -1351.9724 63.968506
1472.7295 -1354.311 67.576805
1472.7313 -1356.8258 71.063141
1472.7332 -1359.5104 74.418861
1472.7349 -1362.3582 77.635628
1472.7366 -1365.3619 80.705444
1472.7383 -1368.5143 83.620667
1472.74 -1371.8074 86.374054
1472.7416 -1375.2329 88.958733
1472.743 -1378.7825 91.368279
1472.7445 -1382.4471 93.59668
1472.746 -1386.2179 95.63839
1472.7473 -1390.0852 97.488312
1472.7485 -1394.0394 99.141846
1472.7498 -1398.0708 100.59486
1472.7509 -1402.1692 101.84373
1472.752 -1406.3246 102.88533
1472.7529 -1410.5265 103.71706
1472.7538 -1414.7645 104.33686
1472.7546 -1419.0282 104.74314
1472.7552 -1423.307 104.93489
1472.7559 -1427.5902 104.91161
1472.7565 -1431.8674 104.67329
1472.7568 -1436.1284 104.22047
1472.7572 -1440.3633 103.5541
1470.2296 -1443.1532 102.97763
1470.2297 -1447.3206 101.96008
1470.2299 -1451.4272 100.73608
1470.2299 -1455.4658 99.30806
1470.2297 -1459.4269 97.679443
1470.2295 -1463.3007 95.85424
1470.2292 -1467.0779 93.83696
1470.2289 -1470.749 91.632614
1470.2284 -1474.3051 89.246689
1470.2278 -1477.7372 86.685112
1470.2271 -1481.037 83.954262
1470.2263 -1484.196 81.060959
1470.2255 -1487.2068 78.01239
1470.2246 -1490.0614 74.816162
1470.2235 -1492.7531 71.48024
1470.2224 -1495.2749 68.012932
1470.2213 -1497.6206 64.422882
1470.2201 -1499.7844 60.719036
1470.2188 -1501.7611 56.910618
1470.2174 -1503.5454 53.007118
1470.2159 -1505.1331 49.018253
1470.2144 -1506.5201 44.953957
1470.2129 -1507.7031 40.824348
1470.2112 -1508.679 36.63969
1470.2096 -1509.4454 32.410393
1470.2079 -1510.0004 28.146954
1470.2061 -1510.3427 23.859941
1470.2043 -1510.4712 19.559963
1470.2025 -1510.3856 15.257606
1470.2006 -1510.0863 10.96338
1470.1987 -1509.5737 6.6875749
1470.1969 -1508.849 2.4396863
1470.1949 -1507.9133 -1.7721893
1470.193 -1506.7715 -5.9267373
1470.1912 -1505.4254 -10.017038
1470.1892 -1503.8785 -14.033827
1470.1873 -1502.1343 -17.967455
1470.1854 -1500.1973 -21.808315
1470.1835 -1498.072 -25.546951
1470.1816 -1495.764 -29.174122
1470.1798 -1493.2789 -32.68084
1470.178 -1490.623 -36.058403
1470.1761 -1487.8029 -39.298424
1470.1744 -1484.8254 -42.392841
